1553
-4.4194345 5.562077 8.9171562
-4.3185649 5.6015444 8.943697
-4.3696451 5.759634 8.9438133
-5.2871146 5.8345194 8.9075871
-5.1839199 5.8912916 8.9497738
-5.0722117 5.8858042 8.9599285
-4.9887385 5.8908396 8.9893064
-4.7141614 5.8418479 8.9240513
-4.6282921 5.8695202 8.9544468
-4.980226 5.9239502 8.9957981
-4.3466597 6.0840106 8.9760847
-5.5048304 6.1465425 8.9476662
-5.2405009 6.1309261 8.9051609
-5.3205752 6.2705574 8.9705238
-5.0668044 6.2899055 8.9228001
-4.975481 6.3137851 8.9045048
-5.5907969 6.4507666 8.9416676
-5.4946623 6.4824352 8.9813576
-5.5049682 6.5317941 8.925271
-5.6736321 6.6432819 8.9548264
-5.5550289 6.6252913 8.9808788
-5.6924295 6.754859 8.9407806
-5.6272416 7.0376873 8.9420738
-5.5750532 7.0836449 8.9753056
-5.4721107 7.1902924 8.9357805
-3.0604377 7.2992458 8.9312382
-5.2760391 7.3707552 8.9260006
-5.1493158 7.3571916 8.9188843
-3.0991859 7.3199091 8.9807987
-2.9601533 7.3172226 8.9520149
-5.1745448 7.4005146 8.9600658
-3.0486131 7.4401631 8.9013119
-2.8417602 7.7412429 8.9559889
-2.7593868 7.7185917 8.9858646
-2.9771333 7.9830217 8.9280281
-2.8619671 7.9014411 8.9017887
-2.8436799 8.011385 8.9721584
-3.1038258 8.1893711 8.9881468
-7.4938955 8.2277098 8.9069853
-3.4013171 8.5512428 8.9704285
-3.2611651 8.5106735 8.9408998
-3.1439481 8.500679 8.9550161
-7.3824177 8.6108494 8.9408073
-6.4596248 9.5944786 8.9185896
-3.5957768 9.5709515 8.9951324
-3.1672783 9.5252199 8.9087753
-2.3747623 9.5398855 8.9688644
-6.3326325 9.666358 8.9993982
-3.5498736 9.605752 8.9033842
-3.2073064 9.625349 8.9391899
-3.126796 9.6649914 8.9920235
-3.0724494 9.6962214 8.9575996
-2.4084592 9.6426773 8.9112148
-2.2523942 9.6461525 8.9947252
-3.2026827 9.7041721 8.9339085
-3.0690012 9.7868032 8.9243813
-2.4863584 9.7129383 8.9532442
-3.9101348 9.82652 8.9455166
-3.2418685 9.8478899 8.9647331
-2.6025658 9.8894472 8.9285526
-2.526839 9.8459435 8.9625454
-4.0301313 9.9978189 8.9613743
-3.1249435 9.9329033 8.9859047
-3.0441275 9.9455862 8.9788818
-2.8902524 9.9687214 8.9202137
-2.7114995 9.9620218 8.9415092
-2.6056111 9.9353504 8.9150009
-2.5244339 9.9544029 8.9489164
-6.1795912 10.056018 8.9821148
-4.1403103 10.033708 8.9595051
-3.7836356 10.036473 8.9362125
-3.1236839 10.014241 8.9897213
-2.9435325 10.013058 8.9174347
-2.7269645 10.094684 8.9915428
-2.5516586 10.018397 8.9412251
-2.3195589 10.059238 8.9731941
-6.1635585 10.198355 8.9181232
-4.0000529 10.182026 8.9698009
-3.9212985 10.171313 8.9755058
-6.1642995 10.270304 8.9634676
-3.8444376 10.236048 8.9275274
-3.0010204 10.234862 8.9098377
-2.9768739 10.297043 8.9661369
-2.8376675 10.25017 8.924078
-2.7434707 10.226882 8.915597
-6.17205 10.33494 8.9260082
-6.0654583 10.362892 8.987546
-6.0740891 10.406091 8.979641
-3.2259054 10.412422 8.9162636
-2.9390457 10.415055 8.9408054
-3.4379053 10.545957 8.9473114
-5.946744 10.872938 8.9204025
-10.575557 -9.7094555 9.082489
-10.666397 -9.6149521 9.048172
24.733452 -9.6705532 9.0783978
-10.6402 -9.4977789 9.0276136
-10.717171 -9.3456764 9.0269051
-10.648851 -9.3541203 9.0964241
-10.757027 -9.2433586 9.0505295
-10.607285 -9.1985531 9.0455933
-10.166382 -9.0009565 9.0660915
-9.9703054 -9.0989552 9.0462093
-10.746186 -8.9862041 9.0259542
-9.9605274 -8.9950848 9.0211115
-10.584049 -8.8297672 9.044939
-9.9795551 -8.8761501 9.0162401
-9.4146652 -8.8642969 9.0909576
-10.574636 -8.7471151 9.0349865
-9.3373756 -8.7276554 9.0614624
-10.622743 -8.6450939 9.0315266
-9.5364914 -8.643116 9.0283146
-9.309042 -8.6130676 9.0245724
12.431513 -8.6548824 9.0190659
-10.579498 -8.5955009 9.0073795
-9.5654974 -8.5804739 9.0744772
-9.4923496 -8.5161419 9.0456028
12.169333 -8.5551996 9.0043812
12.22469 -8.5388756 9.0646114
-10.59308 -8.4544764 9.0369673
-10.149054 -8.4992962 9.0720377
-9.557991 -8.4691925 9.0650711
11.981272 -8.4225426 9.0950432
12.035077 -8.4480705 9.0083828
12.188434 -8.4444771 9.0001583
12.229023 -8.420845 9.0086155
-10.701895 -8.3227243 9.0419712
-10.550284 -8.3290625 9.0307837
-10.098628 -8.3163624 9.0329418
-9.9474001 -8.3777695 9.0540314
-9.8335667 -8.3280344 9.0642757
-9.4870253 -8.3751802 9.0180244
12.272476 -8.3603592 9.0461226
12.50279 -8.3014927 9.0675869
24.247734 -8.3113146 9.0766745
-10.745296 -8.2735271 9.0162573
-9.8947048 -8.2033148 9.093544
-9.7057981 -8.2542744 9.0883198
-9.5230694 -8.2389078 9.0595016
-9.4955177 -8.2793608 9.0772438
12.262144 -8.2339344 9.0835066
12.39287 -8.2214432 9.0297918
12.472113 -8.2330141 9.0922642
-9.7114992 -8.1118526 9.0827389
-9.655035 -8.1783934 9.0852432
-9.5374985 -8.1497421 9.0541782
12.42938 -8.1734076 9.024169
24.018488 -8.161499 9.0268717
-10.232653 -8.0030994 9.0713377
-10.174965 -8.0694761 9.0787783
-9.8487482 -8.0354481 9.0539455
-9.6852512 -8.0202236 9.0615625
-9.5370741 -8.0214567 9.087635
-10.59206 -7.9468598 9.0601635
-10.340965 -7.9238186 9.0003757
-9.9022198 -7.986146 9.0309181
-9.8421049 -7.9343939 9.0350475
-9.7727108 -7.9169908 9.0733614
-9.620594 -7.995163 9.0861759
-10.75841 -7.8676414 9.0613413
-10.627779 -7.8834515 9.05583
-10.551565 -7.8439078 9.0706711
-10.481565 -7.8739195 9.0805178
-10.339113 -7.88833 9.0503893
-9.9435873 -7.8918748 9.0631294
-9.662611 -7.8002186 9.017993
-9.5374622 -7.8876033 9.058548
-10.710527 -7.7798109 9.0061607
-10.172719 -7.7191744 9.0620289
-9.9064245 -7.7227173 9.0585957
23.930267 -7.7393517 9.0908308
-10.820579 -7.6556587 9.088974
-10.672852 -7.6891718 9.0396137
-10.246778 -7.6819172 9.0771961
-10.056479 -7.6960678 9.0278149
-9.7919407 -7.6392708 9.0417633
-9.643054 -7.6125488 9.0632563
12.438383 -7.6011615 9.0441008
-10.619015 -7.5159068 9.0801287
-9.7994118 -7.5568547 9.0632372
-9.5142269 -7.510221 9.0933266
12.409494 -7.5178928 9.0742054
23.893124 -7.5437088 9.0915813
-11.03386 -7.4392681 9.0065727
-10.903233 -7.4535298 9.0747299
-10.896484 -7.4979091 9.0809994
-10.521815 -7.4356728 9.0729637
-10.199562 -7.428884 9.0424919
-9.9040995 -7.4296937 9.0230446
-9.659523 -7.4493012 9.0444126
-9.5155058 -7.4622774 9.0711212
12.331229 -7.4786811 9.058466
12.416233 -7.4279137 9.0844984
-9.6141186 -7.3243885 9.0895081
12.187925 -7.2895498 9.0943651
12.261755 -7.2401314 9.0472326
12.347117 -7.2353187 9.0201788
12.196705 -7.1863675 9.0127411
12.220213 -7.1732244 9.0295372
-9.8137026 -7.0148058 9.0793533
12.178189 -7.0363827 9.0795078
12.271597 -7.0457497 9.0440636
12.364065 -7.0513949 9.0660706
22.345123 -7.0068254 9.0139523
12.395821 -6.9764476 9.0173311
12.67223 -6.9162626 9.0271893
12.245041 -6.8612566 9.0922413
12.347415 -6.8469272 9.0783634
12.269892 -6.7541823 9.0199051
12.318687 -6.7176504 9.05371
12.413122 -6.7545328 9.0729313
12.514744 -6.7575688 9.0376587
22.647762 -6.7766647 9.0047894
12.436867 -6.6623063 9.0933971
12.568562 -6.689435 9.0755396
12.610445 -6.6606712 9.006897
-11.458635 -6.5445337 9.0830555
12.469131 -6.5197573 9.0328732
12.56052 -6.5440822 9.0999184
12.644966 -6.5886703 9.0116997
22.881918 -6.5960331 9.0426579
23.182236 -6.5137167 9.0155029
12.570431 -6.4763951 9.0863495
12.682481 -6.4816232 9.084507
12.706149 -6.4277067 9.033782
23.459188 -6.4337406 9.0013199
12.60281 -6.3999805 9.0647764
23.375793 -6.305409 9.0539951
23.520302 -6.3115578 9.0431519
12.620472 -6.2202029 9.0584373
12.762123 -6.2463565 9.0595093
12.593967 -6.1885734 9.0325356
23.353878 -6.1356611 9.089612
12.631557 -6.0801692 9.0672626
12.712726 -5.9379778 9.0421419
12.835394 -5.9601526 9.0664434
12.906111 -5.9515471 9.0803299
23.660856 -5.9574566 9.026598
23.774504 -5.9482894 9.0512953
12.858364 -5.8380527 9.064189
13.054171 -5.8449593 9.0795746
12.694605 -5.7161293 9.0680237
12.859228 -5.7178049 9.0798645
13.049484 -5.7265682 9.0783119
13.215489 -5.735395 9.0499334
12.760328 -5.6382799 9.0556087
12.865131 -5.6372848 9.0464363
12.934226 -5.6308322 9.0350895
13.032805 -5.6846485 9.081748
13.186218 -5.6698961 9.0391321
13.217469 -5.6531177 9.0975113
13.161833 -5.5115151 9.0671301
21.914923 -5.5474415 9.0896893
12.856131 -5.4330959 9.0111313
13.167149 -5.4785857 9.0531988
13.266588 -5.4397192 9.0443993
13.011503 -5.3124847 9.0601797
13.12574 -5.3296933 9.0261221
13.257652 -5.3466444 9.0215473
13.472153 -5.3105927 9.0160809
13.062037 -5.2714787 9.0819902
13.117497 -5.2968922 9.0951958
13.644091 -5.2176666 9.0954361
13.091462 -5.1576891 9.0163174
13.176315 -5.1393185 9.0687885
13.236118 -5.1381035 9.0603056
13.461378 -5.1781235 9.0476742
13.522154 -5.1488028 9.0511312
13.670294 -5.1421223 9.0911903
13.164358 -5.0966854 9.0318117
13.257278 -5.0519142 9.0629997
13.343667 -5.0696516 9.0696487
13.700975 -5.0552778 9.0411606
13.164097 -4.9620981 9.0645103
13.394268 -4.9936724 9.0400944
13.409492 -4.9068232 9.028821
13.559158 -4.9686751 9.0200996
13.655475 -4.9347076 9.0511951
13.771183 -4.9655108 9.0823689
23.174164 -4.9088039 9.018404
13.033084 -4.8898973 9.099123
13.399377 -4.8077202 9.0386295
13.574108 -4.8689299 9.0216808
13.827991 -4.8978481 9.0019131
13.196428 -4.7630033 9.0679054
13.277494 -4.7822609 9.0695801
13.384436 -4.7848711 9.0558853
13.424167 -4.7833548 9.0478859
13.690046 -4.759222 9.0697184
13.700495 -4.7351255 9.0964928
13.312984 -4.612884 9.0836411
13.681592 -4.6229944 9.0552292
23.968822 -4.6734619 9.0606766
13.587339 -4.5723734 9.0871181
13.655874 -4.5836744 9.0645552
13.712305 -4.5701013 9.0489283
23.818329 -4.5929914 9.0457478
13.523405 -4.4887176 9.0530071
13.738083 -4.41359 9.0589504
13.802753 -4.4432073 9.0673046
13.635656 -4.3339167 9.02281
23.85865 -4.3753862 9.0641308
13.755348 -4.2362661 9.0756826
13.872661 -4.2308512 9.0018501
14.161014 -4.2001352 9.0215836
14.209908 -4.2932076 9.047574
14.407988 -4.2876167 9.028738
23.996737 -4.278295 9.0214233
24.076141 -4.2908239 9.0138063
24.12196 -4.268126 9.057333
14.148228 -4.1682405 9.0566635
14.499493 -4.1040726 9.053545
14.542592 -4.1855807 9.0561085
14.632764 -4.1355691 9.0431156
23.82592 -4.1980968 9.0933857
14.09707 -4.0584803 9.013442
14.25012 -4.0195627 9.0016212
14.590025 -4.0235548 9.0236969
23.634542 -4.0737872 9.0501003
24.041077 -4.0548711 9.0110559
14.052143 -3.9192133 9.010334
14.544216 -3.9423139 9.0200233
14.629648 -3.946312 9.0759115
14.519384 -3.811976 9.0092888
14.451851 -3.747715 9.0931683
14.661093 -3.7290144 9.0371647
14.445242 -3.6628528 9.0736418
14.540857 -3.6432817 9.0197678
14.682055 -3.6380935 9.0489817
14.841147 -3.6172276 9.038105
14.920391 -3.6770768 9.0434742
23.322342 -3.6993248 9.0434523
23.526003 -3.6573215 9.0271835
14.615585 -3.5549355 9.0342112
23.273357 -3.556447 9.0906391
14.567751 -3.445776 9.0192223
14.61595 -3.4126339 9.0595016
14.835864 -3.410291 9.0505991
14.905369 -3.4591069 9.0211382
15.06708 -3.4775922 9.0182858
23.424374 -3.4824576 9.0940218
25.440481 -3.410773 9.0026627
14.65269 -3.3162994 9.0370064
14.74453 -3.3121915 9.0217476
14.837019 -3.3091226 9.0857201
14.926069 -3.3431613 9.0538902
15.256927 -3.3151774 9.0394917
15.398397 -3.3075287 9.0666733
14.874586 -3.2514071 9.0443783
14.91157 -3.211973 9.017992
15.204314 -3.2326107 9.0869904
15.776089 -3.2246478 9.0243607
16.067245 -3.2489085 9.060606
14.833342 -3.1271908 9.023325
15.270281 -3.1363924 9.0631561
15.360483 -3.123333 9.0856915
15.476858 -3.119725 9.0527592
15.545594 -3.1182454 9.0353832
24.287481 -3.1949682 9.0351906
14.846333 -3.0661159 9.0356579
14.949762 -3.0381682 9.0711775
15.313028 -3.0981944 9.0460682
15.906747 -3.0738189 9.0771179
24.150242 -3.0101252 9.078125
14.96006 -2.9910989 9.0648384
15.342382 -2.9174113 9.0800142
15.620917 -2.9182856 9.0598602
15.777979 -2.9196022 9.0023193
15.874254 -2.9545214 9.0815601
23.894718 -2.9569356 9.0575285
24.02883 -2.9708009 9.0729179
24.118393 -2.9619813 9.070364
24.318821 -2.9110038 9.0186911
24.578005 -2.9049001 9.0585184
15.344213 -2.8503675 9.027997
15.493447 -2.8985746 9.0276794
15.658746 -2.8696966 9.0675755
15.73011 -2.8665285 9.082449
15.92773 -2.8818991 9.0303345
16.019775 -2.8805223 9.0928669
16.221783 -2.893667 9.0843658
23.851776 -2.8799763 9.0125475
24.015539 -2.8502388 9.0274801
24.152752 -2.8917043 9.026823
24.330505 -2.845305 9.0370798
15.919199 -2.7676234 9.015831
17.676594 -2.796212 9.0255432
17.751242 -2.7140694 9.0102654
17.821144 -2.7717545 9.0313444
23.732988 -2.7641029 9.0668364
23.879683 -2.7323275 9.0336952
23.920773 -2.7646303 9.0588121
16.258596 -2.6179295 9.0396843
17.804331 -2.6854911 9.0901546
23.890125 -2.6607833 9.0016518
24.031719 -2.6443176 9.0665874
24.101717 -2.6908371 9.0111008
23.734861 -2.5551231 9.0261116
24.45042 -2.5974288 9.0316639
23.755169 -2.4544067 9.0631256
23.83885 -2.4071074 9.0706272
23.948771 -2.4443135 9.0106821
17.637955 -2.3765349 9.0625763
17.883677 -2.3596566 9.0977602
17.920086 -2.3878372 9.0349216
18.057085 -2.328217 9.0585651
24.125223 -2.378907 9.0538254
17.762373 -2.2764192 9.0675116
18.032291 -2.2818022 9.0138063
-7.0639505 0.39613366 9.069994
-6.8575935 0.34633291 9.0678444
-6.2649765 0.82554203 9.0666647
-6.1244311 0.92220932 9.024559
-6.3530574 1.0457432 9.0636797
-6.2579556 1.0286405 9.0341492
-6.3661742 1.1077622 9.0399799
-2.4991696 2.1695724 9.0416574
-2.3054738 2.3963652 9.0374126
-2.6646914 2.4680037 9.0906525
-2.0711317 2.4628291 9.0687819
-2.5858917 2.5208349 9.0389729
-2.8405466 2.6506207 9.0996809
-2.6191015 2.6432042 9.0252743
-2.3926048 2.6913846 9.0665998
-2.227247 2.6463988 9.0475779
-2.1543987 2.63413 9.0387087
-2.0721512 2.658339 9.0123749
-2.5510111 2.7714667 9.0519981
-2.4621835 2.7687111 9.0502768
-2.5110064 2.8086853 9.0299454
-2.3543878 2.8357346 9.0744572
-2.2343554 2.864285 9.0522299
-2.7384338 2.9609151 9.0530815
-2.5419469 2.9266288 9.0429859
-2.4576473 2.9177656 9.0586958
-2.275347 2.9504504 9.0228691
-2.1982591 2.9411805 9.0591946
-2.7418351 3.0051758 9.0245686
-2.5597215 3.0539174 9.0550776
-2.6464906 3.1667838 9.0605459
-2.5281711 3.1469822 9.041153
-2.4372735 3.1458507 9.0949631
-2.2747793 3.1667728 9.0293217
-2.1409316 3.1453118 9.0817118
-2.0578866 3.1634662 9.0889101
-1.9771347 3.1501789 9.090765
-5.8693905 3.2261746 9.0586643
-2.619559 3.2927885 9.0988197
-8.4283524 3.3546271 9.0487823
-2.3176804 3.3122871 9.0489149
-2.1515169 3.3283141 9.089323
-2.0634346 3.3291669 9.0902939
-1.972783 3.3256583 9.0795555
-2.1288469 3.4555376 9.0527792
-8.3633423 3.5624027 9.0093594
-4.9732971 5.0289741 9.0240211
-4.6265121 5.6749048 9.0969954
-4.4667025 5.6003032 9.059473
-5.0544987 5.8659086 9.0452843
-4.5443115 5.8602967 9.0654669
-5.5029755 5.9533019 9.0806589
-5.1294594 5.9177756 9.0307407
-4.9187546 5.98629 9.0876751
-4.6897264 5.9480491 9.0816936
-4.934824 6.0823565 9.0366058
-4.511476 6.1693487 9.0711823
-5.2871246 6.4301887 9.0731926
-5.6523461 6.5205851 9.0350018
-5.5510592 6.5329018 9.0639362
-3.0722265 7.0969324 9.0657082
-5.535923 7.1298347 9.0674915
-3.0843439 7.1433825 9.0583849
-5.5155859 7.2240214 9.0049219
-5.4377646 7.2848272 9.0776014
-3.0665054 7.2464199 9.0563536
-2.9273238 7.2539225 9.0767231
-3.0016673 7.3288736 9.0319519
-2.9526205 7.4922061 9.0517044
-3.0990222 7.6144023 9.0011425
-3.0198703 8.0171852 9.0316811
-7.4683013 8.3502645 9.0604248
-3.5972846 8.5425081 9.0750999
-3.6247027 8.6797523 9.0357141
-6.4750628 9.6564808 9.046731
-6.2779388 9.6301613 9.0901108
-3.9732749 9.6949434 9.0184612
-2.9863336 9.6446276 9.071991
-2.7451456 9.6718416 9.0247803
-3.4928224 9.750617 9.0644274
-3.0143042 9.7679443 9.0868473
-2.6407087 9.7946959 9.0207577
-2.5117493 9.7471218 9.0154915
-3.5112004 9.8409405 9.0976915
-3.0286007 9.8911438 9.0105648
-2.6489143 9.8663168 9.0903778
-3.4251213 9.9044437 9.0398569
-3.2070827 9.9153566 9.0395412
-3.1081839 9.9229164 9.0001354
-3.0009637 9.9727535 9.0808334
-2.5956964 9.9082699 9.0834923
-2.3941121 9.9790039 9.0529156
-3.9938872 10.057658 9.0262623
-3.8625486 10.056979 9.0495472
-3.4257874 10.013083 9.0377407
-3.3181455 10.077171 9.0690231
-3.0629892 10.05784 9.0908451
-2.8049188 10.01882 9.0334435
-2.6766129 10.000584 9.0154152
-6.1141472 10.147388 9.0027409
-3.9478703 10.108644 9.057373
-3.8665242 10.153095 9.0468063
-3.5689125 10.161162 9.004818
-3.3404324 10.115057 9.043354
-3.0234082 10.136784 9.0993824
-2.9534895 10.127276 9.0426903
-2.6997907 10.108052 9.0218678
-2.5729105 10.141861 9.0675964
-3.8439844 10.200748 9.0402088
-3.7643633 10.233529 9.0661297
-3.4620979 10.225116 9.0610971
-6.0991726 10.369535 9.0758696
-2.6057653 10.331101 9.0530224
-2.5040379 10.494511 9.0046101
-2.4750314 10.461898 9.077919
-2.3900189 10.428923 9.0694342
-5.998611 10.527811 9.0367775
-3.2809811 10.512454 9.075119
-3.1549969 10.519478 9.0791702
-7.3606625 13.774467 9.0421257
-7.1950965 14.213314 9.0044127
-10.672445 -9.7393312 9.1370907
-10.573486 -9.7136898 9.1539745
-10.715654 -9.6028423 9.1835289
-10.725355 -9.5274792 9.1625204
-10.57333 -9.5935011 9.1694336
-10.79252 -9.4317541 9.1870928
-10.619843 -9.4978523 9.1443348
24.621635 -9.3372393 9.1628189
-10.730733 -9.1857328 9.1711426
-10.725091 -9.0022116 9.1281776
-10.687885 -8.9660473 9.1288109
-10.67069 -8.8624802 9.149435
-10.134144 -8.8704262 9.1639824
-9.282342 -8.7346125 9.1629791
-10.539858 -8.633975 9.171587
-10.299475 -8.60077 9.1893015
-10.096159 -8.6417665 9.1755009
-10.54517 -8.5714979 9.1488457
-10.341822 -8.5354309 9.1795187
-10.016741 -8.5748711 9.146821
-9.6816339 -8.5221767 9.1208019
-9.4135418 -8.5069189 9.1262226
-9.224124 -8.5449715 9.1614056
-10.567562 -8.4618883 9.1486549
-9.8362007 -8.4651108 9.1038837
-9.3788891 -8.458621 9.1615343
-9.2100849 -8.4765882 9.1862192
12.159913 -8.4652357 9.131052
-10.569448 -8.3953724 9.1353626
-9.6390533 -8.3668337 9.1163845
-9.5308495 -8.306365 9.1879177
-9.4912167 -8.3823891 9.1594276
-9.3925285 -8.3418255 9.1739006
-9.2906227 -8.3105564 9.1241617
12.667955 -8.3886204 9.1251163
12.270212 -8.2390909 9.126565
12.352327 -8.2027884 9.1173096
24.177086 -8.2479811 9.1685276
-9.701622 -8.1209373 9.1115055
-9.5638885 -8.1379108 9.1627445
-10.079416 -8.0784674 9.1605682
-9.560071 -8.0452137 9.1719055
-9.1406422 -8.0204391 9.195612
-9.0784502 -8.0721731 9.1776066
-10.260936 -7.9009457 9.1264067
-10.150221 -7.9196286 9.1493626
-10.080815 -7.9432802 9.1920481
-9.7741489 -7.9296217 9.184638
-9.5893288 -7.9035296 9.1784992
-9.4575768 -7.9993072 9.1294279
-9.3327618 -7.9097309 9.189827
-9.2989578 -7.9567108 9.1866684
-9.1631575 -7.9347034 9.1924114
23.86725 -7.9456539 9.1432972
24.203493 -7.9744344 9.1898651
24.315071 -7.9169955 9.1546555
-10.363377 -7.8713937 9.1264362
-10.296644 -7.86022 9.1117401
-9.8484192 -7.8958402 9.1651592
-9.723093 -7.8661642 9.1200428
-9.6283741 -7.8236632 9.186573
-9.5571909 -7.8327141 9.1540709
24.338358 -7.8963566 9.1280556
-10.576394 -7.774085 9.1417694
-9.8755322 -7.7509198 9.1487322
-9.7346249 -7.7643766 9.1405354
-9.2828646 -7.7348619 9.1097298
-10.585803 -7.6483555 9.1152353
-10.440777 -7.6648617 9.1768217
-9.8506203 -7.6748271 9.1470585
-9.7370052 -7.6580348 9.1768837
-9.5661917 -7.6518865 9.1311836
-9.4636889 -7.6218209 9.1226387
-9.2902212 -7.6451612 9.1419811
-10.928632 -7.5699797 9.1230669
-10.772997 -7.5584016 9.1562042
-10.573084 -7.5741205 9.1411743
-10.429995 -7.5724716 9.1335049
-9.4128342 -7.5010948 9.1363258
-9.3553629 -7.5641875 9.1475067
-10.94883 -7.4807687 9.1569309
-10.853068 -7.4910135 9.1503878
-10.682678 -7.4912157 9.124424
-10.233278 -7.4436517 9.1490822
-9.993351 -7.4684448 9.1797371
-9.621315 -7.4484921 9.1432743
-9.4151802 -7.4102135 9.1804867
12.146048 -7.4532967 9.1356449
12.420406 -7.4912376 9.1229267
-10.557332 -7.3677263 9.1865616
-10.243907 -7.3573303 9.1594696
-10.010633 -7.3783484 9.1763496
-9.7492466 -7.3723941 9.1120796
-9.4637566 -7.366179 9.1583118
12.334066 -7.3691845 9.1523552
12.431906 -7.3648891 9.1113701
-10.565512 -7.2974148 9.1937752
-9.8748665 -7.2748346 9.1307058
-9.612608 -7.2850504 9.1406822
-9.3051872 -7.2598181 9.1703815
12.320639 -7.2431092 9.1913948
12.33239 -7.1225824 9.1578207
-9.9088535 -7.0585542 9.1913052
-9.7203026 -7.0975056 9.1755695
12.139057 -7.0597458 9.1628799
12.236151 -7.0970826 9.1849155
12.399506 -7.0302835 9.1498652
12.452871 -7.0317183 9.1800518
12.552714 -7.0351462 9.1289492
12.634047 -7.0153189 9.1566296
-11.612353 -6.9551907 9.1591206
-11.381166 -6.9252267 9.1506233
-9.9101734 -6.9341106 9.1719103
12.176924 -6.9238267 9.1456738
12.206898 -6.9203024 9.1728935
12.314816 -6.9610744 9.1876221
12.470211 -6.9388046 9.1823406
12.515333 -6.9149675 9.1611233
-11.531379 -6.8678932 9.1398506
-10.092753 -6.8653536 9.1688919
12.169865 -6.8976059 9.1287479
12.229409 -6.8428192 9.1912346
12.352495 -6.8553863 9.1718283
12.527246 -6.8774891 9.1675663
-11.555636 -6.7651653 9.1962795
12.225565 -6.7997789 9.193634
12.325096 -6.7463775 9.1368809
12.499434 -6.7590394 9.1241894
12.591973 -6.741363 9.1922388
12.6343 -6.7407827 9.1686821
12.71592 -6.7330475 9.1363916
12.909134 -6.7261353 9.1926651
12.330057 -6.6873264 9.1833153
12.456453 -6.6654854 9.142066
12.57831 -6.6237307 9.1131201
12.698881 -6.6197934 9.1861725
12.486581 -6.5377626 9.1383562
12.50226 -6.5192032 9.1728458
12.640383 -6.5512357 9.1598558
12.760884 -6.4172373 9.1573639
12.818863 -6.4034848 9.157258
12.576042 -6.3350406 9.1086788
12.681284 -6.3536286 9.1589928
12.813911 -6.3635993 9.1450138
23.526939 -6.3299861 9.1964092
12.675261 -6.2302513 9.1568718
12.911236 -6.2319098 9.124299
23.456291 -6.2001877 9.1968937
12.603953 -6.1983242 9.1408424
12.765841 -6.1353774 9.1220284
12.865834 -6.142282 9.1437359
12.750259 -6.0608244 9.1325512
12.768221 -5.9893956 9.1629181
12.873515 -5.9760008 9.1512489
12.785593 -5.8349152 9.1694899
12.843647 -5.8279281 9.1204548
13.057617 -5.8737917 9.1993198
13.16398 -5.8754311 9.1811867
12.785223 -5.766964 9.1659794
12.879251 -5.7296066 9.1891136
13.129835 -5.7303782 9.16255
-10.430019 -5.6819963 9.1053562
12.845348 -5.6609731 9.160162
13.132113 -5.634654 9.1967573
13.237633 -5.6448917 9.1846867
13.054751 -5.5259638 9.1286802
13.134109 -5.5339527 9.1821756
12.800482 -5.4638596 9.1774101
12.909361 -5.4983649 9.1803398
13.064406 -5.451581 9.1837902
12.974899 -5.3869982 9.1705914
13.076973 -5.3290443 9.1347141
13.116911 -5.3020439 9.1267948
13.238722 -5.2901516 9.1488209
13.355229 -5.2581224 9.1831207
13.628345 -5.2340093 9.1004753
13.136738 -5.1434803 9.1470757
13.342417 -5.1309881 9.19944
13.445004 -5.1668563 9.1653757
13.564576 -5.196703 9.1358719
12.989365 -5.0875449 9.1455784
13.284716 -5.0946922 9.1889963
13.318383 -5.0554113 9.1449718
13.475853 -5.0107846 9.1399298
13.676961 -5.0409985 9.1640463
12.961269 -4.9161501 9.1587315
13.08142 -4.9941778 9.1057434
13.247828 -4.9323473 9.1579542
13.302219 -4.9792633 9.1200275
13.460617 -4.9802876 9.185935
13.535759 -4.9461298 9.1850224
13.618443 -4.9254479 9.1384659
13.798609 -4.9319201 9.1836014
13.822468 -4.9755907 9.1612587
13.154297 -4.8721275 9.134716
13.270629 -4.8609715 9.1790752
13.347059 -4.847549 9.1615524
13.446066 -4.8788919 9.1344719
13.824656 -4.8984718 9.1791801
13.374612 -4.7380924 9.1333828
13.447505 -4.7783184 9.1356354
13.610943 -4.7444668 9.1597166
13.758059 -4.7770872 9.1132221
13.945978 -4.7312574 9.1999073
13.354584 -4.6715736 9.1409998
13.417515 -4.6367378 9.1836491
13.5583 -4.672226 9.1710339
13.86736 -4.6642928 9.1591549
13.876775 -4.5861778 9.1601753
13.684404 -4.4516845 9.1604776
13.774635 -4.4181805 9.1398182
13.891023 -4.493422 9.1148167
13.93591 -4.4576383 9.1038647
24.006874 -4.4583988 9.142252
13.788742 -4.373323 9.1154003
13.85042 -4.3643937 9.180089
13.917264 -4.2446461 9.1984367
23.956524 -4.2233949 9.1729574
13.831888 -4.1899996 9.1446705
13.913261 -4.1467485 9.130744
14.171 -4.1551757 9.188983
14.63143 -4.182096 9.1164656
14.43086 -4.0270395 9.1252193
14.610903 -4.0692139 9.1034203
14.105961 -3.9574153 9.1701622
14.33609 -3.9228714 9.1189766
14.664554 -3.9176912 9.1284351
14.45406 -3.8085179 9.1501064
14.529768 -3.8607805 9.1480637
23.73325 -3.8954406 9.121315
14.505336 -3.7566359 9.1090317
14.931424 -3.7218618 9.1156254
14.847223 -3.5165243 9.1988182
23.363861 -3.5850568 9.1014729
14.680264 -3.4334314 9.1072025
14.81688 -3.4397206 9.1560879
15.223231 -3.4359703 9.1133289
14.886724 -3.3091164 9.1205463
15.251495 -3.3306653 9.1627769
15.301454 -3.3158636 9.1823616
15.883626 -3.3161533 9.1737375
23.322676 -3.3396559 9.1061544
23.571009 -3.3578739 9.121767
24.305189 -3.3223128 9.1764641
14.781904 -3.2711945 9.1548386
15.292072 -3.2927177 9.1946926
15.968534 -3.2758303 9.1913204
16.043577 -3.2781827 9.1171246
14.795261 -3.1345472 9.1127605
14.859517 -3.1555414 9.182394
14.95079 -3.1561828 9.1025925
15.099823 -3.1652141 9.1203785
15.342654 -3.1394348 9.1764851
15.417949 -3.1205826 9.1346264
24.406893 -3.1380434 9.1156616
15.233299 -3.0877259 9.1099911
15.342725 -3.0519824 9.1091862
23.851753 -3.0303922 9.1710377
24.31424 -3.0977697 9.1304531
15.274282 -2.9369323 9.1033125
23.704063 -2.9251661 9.16539
24.159719 -2.9358726 9.1283484
15.561896 -2.8870103 9.1126776
15.643638 -2.8861125 9.1192427
15.722235 -2.8654523 9.1179523
15.97007 -2.8128304 9.1237593
16.038908 -2.8474021 9.1498814
16.119169 -2.8648849 9.1628084
23.674461 -2.8070123 9.1730385
23.945683 -2.8698549 9.1989584
24.186371 -2.8556106 9.1305389
24.366848 -2.8538725 9.1045694
24.620338 -2.8966956 9.1365614
17.781277 -2.7680721 9.1086569
17.805582 -2.72821 9.1402998
23.615498 -2.7415838 9.1980228
23.730391 -2.7342525 9.1474552
24.363274 -2.7368393 9.1853962
17.583946 -2.6633894 9.1481256
17.768604 -2.6715143 9.1397362
17.853426 -2.6247468 9.1743336
18.075048 -2.60572 9.193655
23.652956 -2.6493149 9.1331844
23.74762 -2.663121 9.1670303
23.85556 -2.6515636 9.156517
24.193396 -2.6476016 9.1802521
24.542984 -2.6784346 9.1280308
17.713144 -2.5830572 9.1411533
17.823065 -2.5160527 9.149332
17.917643 -2.5367262 9.1353769
17.644573 -2.4512773 9.1433945
23.640165 -2.4596267 9.1811857
23.758476 -2.4178374 9.1308031
17.615454 -2.350389 9.1982479
17.782372 -2.31742 9.1271601
17.889751 -2.3147264 9.111764
17.975603 -2.3354921 9.131259
24.042891 -2.3589456 9.1092348
24.378067 -2.3221035 9.1984053
17.763813 -2.2763281 9.1742163
17.989 -2.2740622 9.1139669
18.014412 -2.269886 9.1973133
23.991928 -2.2897756 9.1908617
24.031628 -2.2003279 9.1101151
18.04924 -2.1575861 9.1628714
-6.6277485 0.53330463 9.1609879
-6.2287722 0.58447981 9.1294117
-6.1580586 0.58867162 9.1971836
-6.8201237 0.60265315 9.1175995
-6.217948 0.75195253 9.1501284
-6.1546164 0.77373958 9.1653805
-6.8072515 0.88984597 9.1831055
-6.2398601 0.84269583 9.1114569
-7.0058398 0.94328558 9.1797438
-6.4422398 0.91600358 9.1198483
-6.3509789 0.94474018 9.1605301
-6.1448984 0.98559201 9.1959267
-6.9189043 1.0503128 9.1569233
-6.8881583 1.015873 9.1336222
-6.7633543 1.0033548 9.1987934
-6.314599 1.0081192 9.1879673
-6.2022781 1.054714 9.1014042
-6.896811 1.148338 9.166008
-6.5107989 1.1174196 9.1525822
-6.4544787 1.1097351 9.1136684
-6.3708305 1.119296 9.1812468
-6.2821951 1.1198568 9.1745872
-6.4214783 1.2878116 9.1739159
-6.3754888 1.2347285 9.1482716
-2.9086862 2.5492249 9.1742334
-2.8579845 2.5021198 9.1348886
-2.7364352 2.5457225 9.162487
-2.1381173 2.5980654 9.1306725
-2.7340126 2.6706996 9.1291056
-2.7342248 2.797339 9.1523571
-2.4202328 2.7464869 9.1865349
-2.3525269 2.7583089 9.1679296
-2.2831595 2.7799044 9.1925392
-3.0330536 2.8263545 9.1348295
-2.8413208 2.8478901 9.1711655
-2.7536621 2.8292167 9.1845684
-2.6397626 2.8068638 9.1124687
-2.9507177 2.9961104 9.1683521
-2.7574391 2.96104 9.1740818
-2.6770263 2.976383 9.1586885
-2.4071455 2.9777451 9.1720848
-2.3983986 2.9237089 9.1739998
-2.2556791 2.9647341 9.1077042
-2.1335781 2.9772763 9.1439762
-6.1836739 3.0655954 9.1075726
-2.8633037 3.0009637 9.181776
-2.6118805 3.058099 9.1806421
-2.5199904 3.0602813 9.1711245
-2.3541212 3.0300982 9.1326838
-2.2367072 3.0443425 9.1564636
-1.9827241 3.0606523 9.1898308
-2.5937133 3.1235192 9.1459007
-2.3367012 3.1989651 9.1695442
-2.1730628 3.1932468 9.1346188
-6.3322716 3.2270606 9.1531944
-5.2253542 3.2995121 9.1931534
-2.8137255 3.2155077 9.1609879
-2.701827 3.2602763 9.1730146
-2.4255881 3.2448845 9.1259604
-2.3983831 3.2076557 9.1444016
-2.1567147 3.2377665 9.1403637
-1.9772043 3.274662 9.1747007
-6.1357203 3.3189647 9.1200218
-5.8965788 3.3528149 9.1487446
-2.6122956 3.3457937 9.1358242
-2.254178 3.346411 9.1392756
-6.2593403 3.4712722 9.1267796
-5.6261702 3.4985883 9.1069527
-8.3043098 3.5234392 9.1761065
-5.8287125 3.5684307 9.1194191
-8.3199911 3.6014469 9.121273
-3.5173697 3.7926216 9.122159
-5.0250039 5.8950739 9.102499
-5.2814169 5.9734273 9.1078587
-4.5131879 6.0398884 9.1834373
-5.4962397 6.2932034 9.1255074
-5.6506634 6.3266649 9.1748886
-5.572885 6.58285 9.1454754
-5.5953488 6.6285858 9.1138573
-5.5690603 6.8997374 9.1297741
-3.0760198 6.9442453 9.1972332
-5.457696 7.1893249 9.1405849
-3.0947042 7.1409111 9.1242056
-5.4324279 7.2248373 9.1435871
-5.3973126 7.2622128 9.1112328
-5.1714134 7.2109318 9.1172066
-3.1178143 7.2365246 9.1689014
-2.9471331 7.3022327 9.1791182
-5.2954011 7.4477949 9.1775513
-3.1125798 7.4159384 9.1653805
-3.0640497 7.4136438 9.1833439
-2.82798 7.4794216 9.1267109
-3.2517195 7.5078125 9.1951504
-2.8260202 7.7336583 9.1761494
-5.2456436 7.8226681 9.1218014
-3.0189872 7.8771105 9.158947
-2.9619801 7.8776946 9.1371288
-2.859139 7.8151078 9.124896
-3.1129889 7.9580564 9.1592226
-3.017735 7.9630833 9.1639633
-3.2617021 8.0798807 9.1802616
-3.034451 8.0266895 9.1520224
-7.4551549 8.1871405 9.1763134
-3.426229 8.1756411 9.1776295
-3.1790352 8.1715822 9.1085548
-3.5651646 8.2873926 9.138792
-3.4288449 8.3574486 9.143074
-3.3434615 8.3681192 9.1673431
-7.3793597 8.4168549 9.1293106
-3.7080891 8.4140949 9.1442156
-2.9636612 9.4154329 9.1802444
-2.7525809 9.6679354 9.1566486
-2.93016 9.7991533 9.1447935
-2.8039045 9.7935896 9.1963797
-2.749248 9.7622147 9.1667156
-2.6565747 9.7459803 9.1868229
-2.5318625 9.7350092 9.1747837
-2.4123771 9.7404356 9.1779613
-6.172308 9.8640471 9.1998234
-3.5446205 9.8371515 9.1402473
-3.1686218 9.8577299 9.1710911
-3.0335214 9.8576117 9.1312008
-2.6443148 9.8676319 9.1091309
-2.54354 9.8088827 9.1466675
-2.4410729 9.8227329 9.1576767
-2.3155324 9.8633451 9.1927528
-3.9381096 9.9667587 9.1990986
-3.4337504 9.9284172 9.1910305
-3.2083018 9.9663839 9.1341152
-2.8003459 9.9310474 9.1876554
-2.7811465 9.9574223 9.1244202
-2.6522894 9.9570856 9.1080856
-3.2139525 10.070446 9.1731806
-3.1034718 10.018991 9.1918945
-2.9758563 10.060708 9.1843166
-2.7203486 10.025356 9.1632862
-2.2403803 10.052963 9.1677208
-6.2001204 10.196916 9.1019821
-3.7316692 10.166973 9.131813
-3.4054246 10.131787 9.1002293
-3.2750564 10.1717 9.1046591
-3.0533185 10.174695 9.1301746
-2.9789531 10.178043 9.1765842
-2.8984179 10.141734 9.1020203
-6.071928 10.282467 9.1385612
-3.7527633 10.273681 9.1257944
-3.6583991 10.263133 9.1287832
-2.9419136 10.219199 9.1681919
-2.7411942 10.234257 9.1983662
-2.6561451 10.280743 9.1491165
-3.7309854 10.31546 9.1369324
-3.6677332 10.333529 9.1262913
-3.5942059 10.35188 9.1862917
-3.2492042 10.365703 9.1515923
-3.1293142 10.389226 9.170269
-3.5561864 10.499186 9.1471958
-2.3625352 10.499104 9.1318655
-3.1698194 10.503536 9.1449614
-5.9405365 10.677812 9.1610813
-3.4414725 10.603252 9.1541824
-3.389746 10.611518 9.1110344
-3.0705347 10.658377 9.1951962
-0.41921568 17.318428 9.1281567
-10.396877 -9.9249458 9.2915421
-10.554152 -9.8544626 9.2249146
-10.508265 -9.7297554 9.2562561
-10.366591 -9.7176228 9.2973652
-10.525431 -9.6310749 9.2463598
-10.660615 -9.5382786 9.2434168
-10.379271 -9.4067926 9.2679977
-10.148011 -9.4593754 9.2686062
-10.659057 -9.3190861 9.2495899
-10.782244 -9.2144918 9.2930775
24.589037 -9.2145081 9.2747145
-10.754324 -9.1267738 9.2054329
-10.713212 -9.0822897 9.2258911
-9.9304867 -8.9756165 9.2795887
-10.606193 -8.8916988 9.2176476
-10.374335 -8.8068542 9.2479858
-9.9793835 -8.8525448 9.2538986
-9.315855 -8.8523474 9.2026215
-9.2095528 -8.8314962 9.2731915
-10.394487 -8.7065649 9.245203
-9.9664421 -8.7275476 9.211771
-9.9398632 -8.6368189 9.2061367
-9.1843185 -8.6430664 9.2863836
-10.511497 -8.5624924 9.2070751
-9.5996666 -8.5164537 9.2653847
-9.3008385 -8.5937033 9.2708778
-9.5229378 -8.4404106 9.2106457
-9.4552345 -8.4369602 9.2476997
-9.2293854 -8.4077196 9.2420502
-9.0250225 -8.4336233 9.2676086
12.218961 -8.4417162 9.2037182
-9.7484846 -8.3680506 9.2970829
-9.6265717 -8.3471909 9.2466192
-9.587925 -8.3642845 9.2266808
-9.4599342 -8.3891411 9.2154102
-9.3796873 -8.3120728 9.2837715
-9.2406797 -8.3415146 9.2603989
12.232256 -8.360755 9.2304802
-9.4137383 -8.2866573 9.2403936
-9.3152189 -8.2622805 9.2522793
-9.2711105 -8.2085829 9.2534714
-9.1992874 -8.2929964 9.2084026
-9.5031395 -8.1509838 9.2609444
-9.1451664 -8.133666 9.2813559
12.721477 -8.1198397 9.2619781
12.822374 -8.145401 9.2624741
24.016947 -8.1349792 9.2002754
-9.5118465 -8.0313549 9.2557011
-9.1973104 -8.0962353 9.2265911
12.69162 -8.0291634 9.273447
12.702211 -8.0829163 9.2337513
24.192574 -8.0723543 9.2113342
24.208708 -8.0145559 9.247179
-9.5831919 -7.9636269 9.239109
-9.2076988 -7.9730711 9.2757149
-9.1128635 -7.9081888 9.2477932
24.140852 -7.9216614 9.2937965
-9.513484 -7.8833914 9.2570782
-9.4257574 -7.8715239 9.2284737
-9.3416882 -7.8967104 9.2259445
24.073166 -7.8255706 9.2703037
24.248461 -7.8246593 9.2559986
-10.264999 -7.7217927 9.2318926
-9.7469234 -7.7585702 9.2389755
-9.6521082 -7.7129927 9.2760296
-9.5958633 -7.7240872 9.2431269
-9.4875479 -7.7580023 9.2460098
-9.1683397 -7.7012167 9.2372608
-10.292786 -7.6403313 9.2001333
-10.15915 -7.6376343 9.249711
-9.7660341 -7.6312118 9.2458782
-9.6655407 -7.6939621 9.2138014
-9.3294897 -7.6077023 9.2052584
-9.279932 -7.6555281 9.2525806
23.972261 -7.6014576 9.2991085
-10.542 -7.519968 9.2071123
-10.412709 -7.5513735 9.2478895
-10.365214 -7.5864 9.2383051
-9.8150244 -7.5405922 9.2458258
-9.6184559 -7.5729437 9.2971907
12.404789 -7.5439768 9.2573462
-10.98257 -7.4206734 9.2733517
-10.067263 -7.4989018 9.2848015
-9.796608 -7.4576173 9.2998257
-9.6400375 -7.4418144 9.2046661
-9.5334301 -7.4723201 9.2576866
-9.4372625 -7.4763923 9.2181854
-9.3165741 -7.4237571 9.2202768
-9.2878666 -7.4918184 9.2130566
12.302001 -7.4935999 9.2984295
12.447048 -7.4049792 9.2113628
-10.201246 -7.3603435 9.2952003
-9.9122391 -7.3239412 9.2698164
12.229332 -7.3478875 9.2581253
12.372974 -7.3884344 9.2545795
12.259594 -7.2538481 9.2328024
12.328342 -7.2327628 9.2153549
-9.517971 -7.1360703 9.2488232
12.433443 -7.1007204 9.2166662
-10.385698 -7.0267344 9.2856865
-9.6856346 -7.088203 9.2272625
-9.5588541 -7.0515804 9.2618408
-9.3489428 -7.0516167 9.282547
12.165859 -7.0540299 9.2503738
12.484108 -7.0489159 9.2934742
12.583796 -7.0246344 9.2062454
12.672251 -7.0122666 9.2714128
-9.97299 -6.9151917 9.2713699
-9.8928919 -6.9110394 9.205534
-9.7736092 -6.9771547 9.2843485
-9.460145 -6.9133415 9.2599506
12.366921 -6.9501429 9.2105427
12.74818 -6.901454 9.2015924
-9.9210758 -6.8454232 9.2967272
12.216309 -6.8347421 9.2361889
12.374763 -6.8336606 9.2766838
12.631439 -6.8196206 9.2321577
12.746445 -6.8001575 9.2606773
12.316365 -6.7201228 9.235672
12.541032 -6.7840872 9.2454729
12.656925 -6.7767382 9.2203569
12.745109 -6.722764 9.2500362
12.922785 -6.7617083 9.229969
-11.485666 -6.6767645 9.2547121
12.380362 -6.6616988 9.2289877
12.445683 -6.6377249 9.2614956
12.669333 -6.6150641 9.2892542
-11.65405 -6.5730257 9.2897949
12.072788 -6.5079918 9.2451105
12.194897 -6.5443258 9.2366467
12.34174 -6.5848036 9.2325649
12.456446 -6.5673118 9.2324028
12.641866 -6.5222015 9.2650738
13.002357 -6.5785375 9.2883377
12.077639 -6.4231606 9.2636118
12.547788 -6.4053183 9.2081585
12.636339 -6.4846349 9.2795315
12.785633 -6.4521289 9.2429218
13.071146 -6.4905033 9.2981949
-11.583703 -6.3698053 9.2942486
12.167691 -6.305716 9.2949257
12.540804 -6.3621063 9.2874346
12.747416 -6.336009 9.2641706
12.390327 -6.2243528 9.2873192
12.452345 -6.2549734 9.2843475
12.725545 -6.2635922 9.2479916
13.091372 -6.2035084 9.291254
12.330891 -6.1027412 9.2817917
12.641083 -6.1714296 9.2189226
12.760914 -6.1427007 9.2778015
12.935215 -6.1256986 9.200695
12.837451 -6.0638609 9.2362356
12.767698 -5.9138851 9.2267141
12.836058 -5.9143314 9.2038603
12.917184 -5.9457588 9.2190495
12.775692 -5.8436203 9.26861
12.971002 -5.8870397 9.2451639
13.048042 -5.868125 9.2353249
23.908455 -5.8893585 9.2152958
12.7988 -5.7292042 9.2153692
12.972504 -5.7385082 9.2418861
13.139729 -5.7131515 9.2257662
13.226206 -5.7883615 9.2293224
12.740936 -5.6943812 9.2043285
12.935291 -5.6534801 9.254077
13.069187 -5.6204424 9.2034063
13.186501 -5.653841 9.2687559
13.032619 -5.5637398 9.2401295
13.169434 -5.5931416 9.263257
13.301941 -5.5177131 9.252552
13.069361 -5.4793644 9.2888231
13.1659 -5.4341393 9.2849073
13.225679 -5.4511056 9.2266207
12.994318 -5.3701477 9.2769012
13.236224 -5.3450713 9.2618847
13.120639 -5.2472258 9.264699
13.203374 -5.2882586 9.2481861
13.382696 -5.2644434 9.2159195
13.529955 -5.2114754 9.2296858
13.073689 -5.160944 9.2737083
13.15295 -5.1520538 9.2245226
13.45425 -5.1492519 9.2074423
13.569172 -5.1090355 9.2027454
13.631933 -5.1145439 9.2281857
13.850431 -5.1153917 9.2143135
13.156544 -5.0724344 9.2695522
13.308819 -5.0904746 9.2148399
13.544829 -5.0768995 9.2773743
13.676906 -5.0343561 9.2066383
14.069396 -5.0935941 9.2993298
13.16189 -4.925549 9.2188473
13.286503 -4.9465709 9.2753572
13.31896 -4.9341002 9.2658634
13.40189 -4.9645758 9.2798662
13.555269 -4.9364314 9.2026196
13.900143 -4.9550495 9.2549114
13.245773 -4.8407664 9.2288895
13.446575 -4.8041091 9.2423
13.542997 -4.880425 9.2042284
13.602947 -4.8977985 9.2110615
13.710341 -4.8386354 9.2464027
13.809788 -4.8315163 9.248888
13.336191 -4.752305 9.2764378
13.511389 -4.7051802 9.214366
13.604334 -4.7520556 9.2845192
13.712268 -4.7462587 9.2362728
13.81248 -4.7902546 9.2392702
13.477728 -4.6170177 9.2480488
13.699361 -4.6311274 9.2352371
13.734061 -4.6878834 9.247942
13.955502 -4.6531944 9.2537107
13.560289 -4.5523553 9.2253971
13.661746 -4.5528908 9.2699928
13.717002 -4.5293818 9.2616901
13.858097 -4.5991421 9.2078829
13.907011 -4.5780258 9.2742462
14.01437 -4.5473771 9.2326794
13.676072 -4.4944267 9.2158175
13.830443 -4.4473877 9.2352524
14.079 -4.455617 9.291111
13.957183 -4.2664404 9.2010555
24.368643 -4.2124496 9.2017384
14.685536 -4.1388187 9.277174
14.701694 -4.1211472 9.2393913
24.198727 -4.0921278 9.2757626
14.830528 -3.5352058 9.2274618
14.795494 -3.4850564 9.2480907
14.872377 -3.4432664 9.2496996
23.408457 -3.4567609 9.2142258
14.785107 -3.3013291 9.2834415
15.276217 -3.32353 9.2172318
15.304114 -3.3077755 9.212492
15.95153 -3.3335009 9.2529459
23.407574 -3.3624008 9.2212238
14.745829 -3.2614655 9.259078
15.180561 -3.2183747 9.220808
15.912881 -3.2681851 9.2435379
14.841091 -3.1551187 9.2158842
15.208835 -3.1258545 9.2070026
15.878045 -3.1011515 9.2401352
16.11256 -3.1564078 9.2848663
23.884676 -3.1563501 9.2043095
14.881996 -3.0076432 9.2158022
14.967311 -3.0090122 9.2090378
15.342951 -3.0569632 9.2692928
16.098372 -2.9013059 9.2012424
23.624994 -2.9904385 9.2964516
25.104973 -2.9719856 9.2820454
15.324419 -2.8708749 9.2433662
15.724715 -2.8653116 9.2528248
15.845123 -2.8907716 9.2796793
16.072268 -2.8599267 9.2424688
16.14175 -2.864054 9.2339897
23.555931 -2.8437376 9.2967739
23.821754 -2.8439319 9.2173653
15.897635 -2.7979283 9.2523355
17.547716 -2.7122383 9.290144
23.579197 -2.7131634 9.2308235
23.725376 -2.7615521 9.2831535
24.717331 -2.7086465 9.2042818
17.522028 -2.6768923 9.2912645
17.648863 -2.6734247 9.2729397
23.630707 -2.6635897 9.2895279
24.275803 -2.6123586 9.2114658
17.568127 -2.5812685 9.2295036
17.720707 -2.5888677 9.222517
17.89959 -2.5364966 9.2781315
17.945013 -2.559093 9.2236719
23.690365 -2.5339601 9.2036076
23.782858 -2.5712104 9.2238464
23.907473 -2.5688128 9.2588186
17.578529 -2.4148912 9.2261391
17.672062 -2.4614625 9.2606516
17.759621 -2.4446352 9.2755795
17.830807 -2.4266958 9.2388287
17.931644 -2.4527059 9.2528458
23.580929 -2.4179678 9.2494316
23.665314 -2.4344509 9.2151127
17.58683 -2.3386111 9.2720327
17.653011 -2.3451285 9.2359905
17.880615 -2.3958559 9.2226009
17.911779 -2.3849711 9.2788544
23.715466 -2.3963614 9.2027683
23.845901 -2.3126311 9.2302551
17.749079 -2.2495997 9.2749548
17.875174 -2.215631 9.2340946
17.917864 -2.2264035 9.2299891
23.770523 -2.2672546 9.2615042
24.031683 -2.2618108 9.2399645
24.182873 -2.2634969 9.2567015
17.885942 -2.146719 9.2838726
17.982639 -2.1340959 9.2486143
18.113176 -2.1726415 9.2031031
23.865891 -2.1811228 9.2233562
-6.1477799 0.21058694 9.2185421
-6.8272505 0.68049371 9.2479544
-6.5143132 0.80135965 9.2632761
-6.2472334 0.86703861 9.2405424
-6.7514076 0.98364109 9.2446604
-6.55445 0.99275374 9.2586899
-6.1694722 0.9703995 9.218792
-6.87993 1.0692605 9.2194624
-6.7264628 1.0990156 9.2011681
-6.5148101 1.0423194 9.2030439
-6.3068199 1.0506135 9.2669983
-6.2151566 1.0524942 9.2930241
-6.8016548 1.1284255 9.2552032
-6.4652972 1.1603866 9.212945
-6.3139896 1.1278752 9.2105618
-6.2560239 1.1703947 9.2489223
-2.5562959 2.5788634 9.2008057
-2.2058823 2.5544028 9.2118702
-2.7775426 2.6459796 9.2498341
-2.6800647 2.6683156 9.263504
-2.3854287 2.6199656 9.2192726
-2.9329984 2.7727733 9.2183743
-2.6405842 2.7401671 9.2620974
-2.5727978 2.7665246 9.2394829
-2.3627546 2.750572 9.2498627
-3.0284662 2.833257 9.2451763
-2.8482356 2.8228247 9.2411289
-2.6927762 2.81529 9.2343864
-2.597424 2.8445213 9.2042627
-2.394218 2.8409591 9.2649193
-2.7187176 2.9624281 9.2083359
-2.6917243 2.9783783 9.2332096
-2.5201893 2.942565 9.21171
-2.4413662 2.9641938 9.2390108
-3.4699483 3.0772026 9.2807426
-3.3635969 3.0918047 9.2520409
-2.9482131 3.063956 9.2135544
-2.8425493 3.0666687 9.2287636
-2.7037625 3.089282 9.2397766
-2.6280236 3.0095897 9.2692337
-2.4330359 3.0290284 9.2603645
-2.2402833 3.0771523 9.2006321
-2.1438928 3.0862653 9.2170563
-2.0688076 3.0854053 9.2237015
-1.9760799 3.0994961 9.2545815
-2.5256228 3.169229 9.2502213
-2.3094158 3.1886892 9.2825041
-2.2405124 3.1270771 9.25208
-2.16642 3.17208 9.2685881
-2.0040793 3.1853151 9.2940331
-3.4898701 3.240416 9.2747993
-2.9000697 3.2148361 9.2203159
-2.869771 3.2354131 9.2611809
-2.7451351 3.2276447 9.2319069
-2.6465778 3.2825353 9.2538986
-2.5056696 3.2244151 9.2173672
-2.4618177 3.2120583 9.2294617
-2.3622556 3.2622151 9.227191
-2.7455471 3.3877873 9.2573032
-2.2726295 3.3312094 9.2842503
-2.1500096 3.3128114 9.2729588
-2.0566442 3.3378701 9.2461224
-2.7476213 3.4917569 9.2970257
-2.3289852 3.4278643 9.2878647
-2.0084052 3.4473438 9.2969017
-8.2973709 3.6022017 9.276907
-4.6285567 5.4952478 9.290884
-4.6116252 5.5283022 9.2148209
-5.0178709 5.6923575 9.2119427
-4.5827703 5.7537498 9.2039165
-5.2658553 6.1645274 9.2094107
-5.0056534 6.2822423 9.2828579
-3.9226153 6.2001796 9.2702971
-3.2212377 6.8631873 9.2536793
-3.1952 6.8450904 9.2136621
-2.9590242 6.8367596 9.261322
-3.0877762 6.960268 9.2615337
-3.0488486 7.0416174 9.2123976
-3.191443 7.1043749 9.2629986
-3.008491 7.1546092 9.220705
-3.1491516 7.2544994 9.2816429
-2.7085731 7.2804461 9.2164917
-5.4004464 7.3470421 9.28825
-5.3924961 7.355248 9.2408409
-3.2242293 7.388442 9.2250881
-5.3164973 7.4564004 9.284133
-3.1690893 7.4250093 9.2140932
-5.3316326 7.5095677 9.2831821
-5.272028 7.5521159 9.2780361
-5.2454996 7.6335597 9.2860384
-5.2657704 7.7545414 9.2315569
-3.3155918 7.7081256 9.2009602
-3.6389911 7.8082438 9.2922478
-3.3823235 7.8323455 9.2938166
-3.2503786 7.8315573 9.2262955
-3.0150428 7.8346376 9.2261496
-2.9394858 7.8125815 9.2563248
-3.652638 7.9569416 9.2913017
-3.2164779 7.97539 9.2983227
-3.1635849 7.9602995 9.2682352
-3.0348728 7.9502878 9.2236671
-3.3063149 8.0561409 9.2947941
-3.2614746 8.0677748 9.284339
-3.1848269 8.0421362 9.2775517
-3.0550313 8.071702 9.2603302
-2.9938459 8.0028725 9.2340832
-7.4665108 8.158659 9.2358856
-3.3067017 8.112195 9.2432175
-3.5653424 8.2240543 9.232873
-3.595474 8.3455753 9.2603207
-3.7346539 8.4718857 9.2395554
-3.6359248 8.4815435 9.2231483
-3.511795 8.4484129 9.2245636
-2.9832556 9.4465008 9.2825747
-6.4657073 9.5168285 9.2021179
-6.3760686 9.5902882 9.2850971
-3.0093579 9.574646 9.2952709
-2.50967 9.5891094 9.2634697
-2.3882017 9.5003986 9.2521782
-3.5285378 9.6839361 9.2138968
-2.9544988 9.6208982 9.2533588
-2.8621092 9.6130743 9.2766171
-2.390553 9.6216784 9.2619801
-2.9194508 9.7540941 9.2480946
-2.6471858 9.7211332 9.2046461
-2.4262555 9.78234 9.2586174
-2.3984909 9.7264452 9.2475853
-6.2966847 9.8089733 9.2139311
-4.0203409 9.87043 9.2180386
-3.889116 9.8690519 9.2419281
-3.5310128 9.8385897 9.2006817
-3.3151975 9.8771973 9.2910738
-3.1788352 9.8465796 9.2607899
-3.0541105 9.8522768 9.2424889
-2.6556187 9.8515081 9.2536583
-2.4313781 9.8536568 9.2306156
-2.3456817 9.8542118 9.2421722
-2.2776413 9.8436985 9.2853718
-3.4559836 9.9490728 9.2390518
-3.1242051 9.9336348 9.2740717
-3.09653 9.9192667 9.224041
-2.9425759 9.9726772 9.2312098
-2.7251935 9.9927006 9.2644157
-2.685055 9.9190598 9.2787037
-2.5697284 9.9461718 9.2860889
-3.8458505 10.00176 9.2625084
-3.351099 10.049124 9.2216835
-3.0844796 10.070235 9.2807121
-2.9564874 10.032455 9.2817516
-2.8428223 10.004745 9.2994022
-2.7320297 10.06216 9.261034
-3.4816947 10.176624 9.2210569
-2.7071881 10.118204 9.2429104
-6.116663 10.295534 9.2770271
-6.0952725 10.287116 9.2432899
-5.9773502 10.210413 9.2308912
-3.706414 10.255705 9.2715359
-3.6326935 10.293387 9.2149582
-3.0391607 10.24069 9.2914963
-3.6639547 10.357073 9.2202787
-2.7640147 10.386767 9.2316732
-3.5500488 10.42501 9.2543888
-3.2969465 10.487453 9.2861586
-3.1670907 10.48566 9.2827616
-2.6536579 10.455203 9.2464237
-3.3876681 10.577984 9.2059269
-3.2401581 10.587734 9.2990208
-3.3366628 10.63666 9.2512379
-3.0789118 10.638164 9.27565
-7.3221173 14.007185 9.2030258
-7.2124829 14.017817 9.2984266
-0.43803442 17.258595 9.2572346
-10.373656 -9.9037876 9.3581238
-10.390595 -9.8294706 9.3072052
-10.43757 -9.7430763 9.3477621
-10.214074 -9.785634 9.365324
-10.289989 -9.5296812 9.3317318
-10.028614 -9.5343246 9.3695173
-10.550123 -9.428812 9.3773584
-10.237909 -9.4246693 9.3391151
-10.020457 -9.4591236 9.3827419
-10.680923 -9.336998 9.3316727
-10.439865 -9.3331022 9.3740978
-10.221603 -9.321888 9.3017263
-10.186348 -9.3635864 9.3380823
24.408171 -9.3015366 9.3464508
-10.669311 -9.2256756 9.3288536
-10.612352 -9.1556969 9.3421259
-10.345459 -9.1560812 9.3183441
-10.69778 -9.0524836 9.301981
-10.139229 -9.007884 9.3289375
-9.3493614 -9.0022926 9.3831215
24.702087 -9.0545568 9.3699398
-10.535371 -8.9894981 9.3470736
-9.548399 -8.9599323 9.3454971
-9.0674286 -8.9856071 9.3809042
-10.649567 -8.7991905 9.3042717
-9.2119045 -8.7036991 9.3314228
-9.1143417 -8.7516708 9.3568754
-9.070837 -8.7694054 9.3873034
-9.0495377 -8.6296091 9.3555355
-9.4599524 -8.5390797 9.3450804
-9.1725988 -8.5421104 9.3444958
-9.0968609 -8.5603085 9.3507252
-9.4928875 -8.4490976 9.3135929
-9.3097343 -8.4263134 9.3764668
-9.1736851 -8.4495802 9.3625813
-9.099165 -8.4313793 9.3202896
-9.614399 -8.3073454 9.3507843
-9.5467443 -8.3159094 9.3250284
-9.3033371 -8.3324175 9.3305225
-9.2514715 -8.3782902 9.3382607
12.651096 -8.3463316 9.3414364
23.973186 -8.3498249 9.3215733
-9.5485897 -8.2076645 9.3071766
-9.1249123 -8.2838545 9.3893919
23.903748 -8.260334 9.3019695
-9.3364897 -8.1743555 9.3587132
-9.1850491 -8.1037283 9.343504
12.761185 -8.1100712 9.3584919
-9.4837236 -8.0218563 9.324501
-9.2261257 -8.0145178 9.3145924
-9.1073685 -8.0473738 9.3759174
-8.9601336 -8.0180387 9.3959599
12.749397 -8.0514174 9.3252068
23.90843 -8.0467281 9.3546333
-9.3664169 -7.9491897 9.3276806
-9.1287689 -7.9720736 9.338006
-9.0269279 -7.9495392 9.3458748
-9.5514603 -7.8340735 9.3685207
-9.4326591 -7.8678589 9.345623
-9.1587095 -7.8262553 9.3982449
-8.8311253 -7.8418226 9.3955069
12.602419 -7.8120255 9.3316917
12.743177 -7.8854084 9.3846741
24.052116 -7.8074479 9.3879261
-9.2461567 -7.7421641 9.3309498
-8.971591 -7.7658143 9.3578987
-8.8658638 -7.7706594 9.3693676
-11.661668 -7.6329479 9.3899517
-10.266812 -7.6084261 9.3339128
-9.6153679 -7.6658387 9.3543205
-9.2759762 -7.6377363 9.329874
-9.1901302 -7.6110911 9.3638496
-9.0718956 -7.6749716 9.3050995
-8.9543419 -7.6397228 9.3518505
12.522663 -7.6025887 9.3530684
-10.842638 -7.567872 9.3814392
-10.448439 -7.5329986 9.3325787
-9.8085012 -7.5065417 9.3620605
-9.6229877 -7.5597525 9.359108
-9.5104637 -7.5376368 9.356986
-9.4483833 -7.5747561 9.334877
-9.2577858 -7.5114479 9.30303
-9.1161852 -7.5788345 9.3955193
12.460485 -7.514823 9.3112879
-10.071955 -7.4452 9.3466682
-9.2755947 -7.4555426 9.3534374
-9.1095095 -7.4947672 9.3973846
12.208517 -7.4200249 9.3281851
12.41944 -7.4181843 9.3162708
-10.768728 -7.3274298 9.3849392
