1467
4.6914439 -22.145393 -1.6638865
4.9448743 -22.058657 -1.6765554
5.2845736 -22.164755 -1.6535227
5.5226984 -22.069851 -1.6302259
5.777823 -22.062366 -1.6892265
6.1674595 -22.110691 -1.6397398
6.3869476 -22.013561 -1.6226323
6.8529139 -22.19585 -1.6257577
2.6997828 -21.742701 -1.5926409
3.1142001 -21.88332 -1.5585899
4.4631276 -21.809269 -1.6565278
5.6067219 -21.848963 -1.6878004
6.2438068 -21.808929 -1.6555922
-7.2757072 -9.0042763 -1.7678075
-7.3290915 -8.8967094 -1.5214733
-7.1925812 -8.4963551 -1.6613832
-7.2071304 -8.3484545 -1.6329231
-7.1871967 -8.1872911 -1.599575
-7.1738262 -8.0302982 -1.5674849
-7.0936055 -7.5399446 -1.6148415
-7.0831265 -7.3171091 -1.5685531
-7.038734 -7.084753 -1.5178268
3.9039412 -22.240116 -1.3704436
4.6227694 -22.235958 -1.3134054
4.8110256 -22.262283 -1.3842394
5.2301025 -22.233135 -1.2897651
5.8479447 -22.276741 -1.3817072
6.0210876 -22.239437 -1.4185975
6.3702526 -22.389458 -1.3054709
6.6818457 -22.33905 -1.3453826
7.0314574 -22.306656 -1.3611025
7.3108988 -22.34701 -1.330254
7.6121969 -22.328808 -1.345425
7.8593917 -22.328897 -1.2081105
9.2357101 -22.471096 -1.2050996
9.7581615 -22.287424 -1.2076169
2.9137654 -22.07436 -1.4863863
3.1662631 -22.06513 -1.3557742
3.3782063 -22.044281 -1.4664388
4.030777 -22.11129 -1.3047355
4.3984771 -22.104351 -1.3002673
4.8901253 -22.080397 -1.3016839
5.3334923 -22.144062 -1.3404095
5.5362787 -22.034367 -1.4292638
5.7284784 -21.915735 -1.3014909
6.2399302 -22.108551 -1.3508701
7.700367 -22.144131 -1.249629
8.2430878 -22.161306 -1.3474498
9.0946999 -22.163687 -1.2079052
9.8598804 -21.939312 -1.3204472
10.038475 -22.149879 -1.40502
2.4399986 -21.606253 -1.3997886
3.6702023 -21.797012 -1.3469927
4.4973392 -21.839029 -1.4380479
4.538734 -21.867016 -1.2238677
5.6165175 -21.874886 -1.4557338
6.1228857 -21.835976 -1.3022225
9.5141382 -21.869743 -1.2719148
-7.2961159 -9.07271 -1.4081652
-7.2197561 -8.489193 -1.2960742
-6.9836373 -8.4519882 -1.4312845
-6.8407645 -8.4849262 -1.4187146
-7.5027709 -8.2086487 -1.4130812
-7.2862196 -8.2271051 -1.3139229
-7.0518532 -8.2729015 -1.3883891
-7.2781343 -7.9787273 -1.2038269
-7.1934118 -8.0960655 -1.2217215
-7.0616083 -7.6390934 -1.343946
-7.0607419 -7.4393101 -1.2722249
-5.6120057 -6.6356373 -1.2206289
-6.9062495 -6.3388453 -1.3557224
-7.2396245 -6.29175 -1.4447412
-6.9102387 -6.0650229 -1.3000824
-6.8483329 -6.0492797 -1.3912454
-6.8147845 -5.903409 -1.2600528
-8.3074741 -4.2081599 -1.2413667
-7.2788167 -4.3521538 -1.4524094
-7.08042 -4.3943415 -1.3203499
-8.2681351 -4.0594873 -1.2386618
-8.2817841 -3.8469677 -1.2333169
3.948555 -22.270052 -1.1413368
4.6641688 -22.259838 -1.0711529
4.8196049 -22.259937 -0.93621302
5.3050346 -22.259937 -0.99330926
5.6636086 -22.225834 -1.1477858
5.8441706 -22.331392 -1.0368708
6.0833898 -22.283291 -1.0007792
6.4635696 -22.321493 -1.0622063
6.7596107 -22.342741 -0.99617469
7.1029649 -22.391403 -1.033772
7.3666754 -22.407639 -1.0505939
7.7068706 -22.309307 -0.99435306
7.9318552 -22.411816 -1.0659567
8.2626839 -22.305962 -1.0222052
8.5960064 -22.354492 -1.0017583
8.7451639 -22.230852 -0.99808896
9.209137 -22.397732 -0.98867565
9.4437237 -22.337862 -1.0814955
9.8123598 -22.296667 -1.032369
3.2044773 -22.100544 -0.97610992
3.4732981 -22.025532 -1.0150557
3.6569185 -22.1859 -1.0207839
4.1460242 -22.16062 -1.0396732
4.3280525 -22.074089 -1.0708671
4.5548015 -22.101641 -1.0114532
5.0543876 -22.138113 -1.0335473
5.2732754 -22.116924 -0.99421072
5.5883155 -22.096146 -1.0765538
5.7930813 -22.008694 -1.081782
7.6179962 -22.161934 -1.0335791
8.2014618 -22.195229 -1.0326993
8.5015955 -22.119244 -0.95322156
9.061552 -22.183701 -0.98344457
10.025669 -22.028431 -0.99787366
2.5816174 -21.670843 -1.1697879
2.853931 -21.799007 -1.0450413
3.7863905 -21.856209 -1.059504
6.0376387 -21.853523 -1.0231932
9.6221218 -21.888884 -0.93149841
10.442042 -21.860077 -0.94814146
10.220407 -21.521378 -1.0932457
13.624638 -16.940994 -0.97374225
12.869013 -16.787352 -0.91688704
-10.703875 -15.478658 -1.1683886
-8.2784328 -13.722513 -1.1633029
-8.0409765 -13.611155 -1.1535773
5.3601847 -11.197433 -0.93389809
5.0056925 -10.969797 -0.97152019
19.717943 -11.043766 -0.92538166
19.944302 -10.759743 -1.0061405
-7.3064938 -9.089941 -1.0837877
-7.2983527 -8.8636818 -1.0994881
-7.2399244 -8.4784956 -0.93064833
-6.947866 -8.4007273 -1.0360491
-6.897346 -8.5300179 -1.0586998
-7.5181098 -8.2742767 -1.0645702
-7.2197666 -8.3164587 -0.90199447
-7.1016459 -8.3266668 -1.0481942
-7.111855 -7.9373636 -1.0120949
-7.0808768 -7.5999351 -1.0161406
-7.1016903 -7.4073548 -1.1461394
-7.0718212 -7.1732745 -1.1733701
-7.2809072 -6.3014865 -1.0943959
-6.9380374 -6.4752827 -1.0224915
-6.8778834 -6.4037256 -1.0458984
-6.1630111 -6.4593978 -0.96778488
-5.6827512 -6.5236964 -0.90442705
-7.2303815 -6.2525277 -0.97724271
-6.992135 -6.1633587 -0.97013062
-6.8884711 -6.0587511 -1.05155
-3.1768031 -6.1899786 -0.93991017
-7.0101695 -5.8747196 -0.93960035
-6.8623042 -5.874073 -1.00122
-6.9686546 -5.1473951 -0.9808352
-6.7359152 -5.2239351 -1.0518162
-6.6773853 -4.954896 -0.98929143
-6.2911363 -4.8605309 -0.99693203
-6.8132815 -4.622766 -1.0611105
-6.3461804 -4.6909342 -0.96167046
-7.5837255 -4.2599263 -1.1559615
-7.3190398 -4.3620758 -1.1236633
-7.0382323 -4.3897448 -1.0040282
-6.7469134 -4.3914785 -1.0127306
-8.2985649 -3.963634 -1.0691047
-7.6747851 -4.0480204 -0.94427776
-7.226284 -4.0756245 -1.0992954
-7.1368918 -4.0797749 -1.1615331
-8.2916746 -3.7285471 -1.1158122
-8.0226822 -3.6200254 -1.1951413
-7.7201457 -3.8992791 -1.169674
-8.1944733 -3.5190024 -1.1248987
-7.2792001 1.6758122 -0.91894281
-7.2667661 1.8173962 -0.91823554
3.3558564 -22.24667 -0.8228507
3.8099275 -22.236574 -0.80715322
4.0003471 -22.304237 -0.62456429
4.3757772 -22.228992 -0.69669199
4.7027559 -22.314932 -0.7334075
4.9301214 -22.267803 -0.75986993
5.2560658 -22.300156 -0.75391424
5.4928665 -22.252411 -0.78565067
5.8403068 -22.352798 -0.74634314
6.2145896 -22.283447 -0.73580235
6.478158 -22.404247 -0.72145861
6.7127566 -22.38917 -0.76145762
7.0405912 -22.311676 -0.70136207
7.3464165 -22.449373 -0.78733456
7.7212987 -22.329393 -0.71340555
7.9713478 -22.356894 -0.75336343
8.232666 -22.326227 -0.71650785
8.5541859 -22.393179 -0.75937754
8.8602333 -22.347418 -0.74485826
9.1013031 -22.432165 -0.6889348
9.434803 -22.415823 -0.74043906
9.8583889 -22.303938 -0.87267649
10.045027 -22.204542 -0.64387023
3.2803907 -21.97821 -0.70409441
3.519093 -22.10384 -0.7606982
3.7002931 -22.102707 -0.69509983
4.1181235 -21.996832 -0.810027
4.3198948 -22.158186 -0.74135804
4.6601791 -22.030884 -0.79016399
4.8575583 -22.181765 -0.63523531
5.2223182 -22.110195 -0.7149415
5.5736012 -22.123167 -0.74614221
5.8640919 -22.032473 -0.75660163
6.1064997 -22.070564 -0.72846651
7.495585 -22.188246 -0.64209366
7.5443892 -22.178698 -0.79995537
8.4281673 -22.135162 -0.76288998
9.0623569 -22.198956 -0.75827026
10.029262 -21.964958 -0.7800343
10.254688 -22.182409 -0.72855413
12.987291 -22.111683 -0.69687462
13.420713 -22.028481 -0.74952447
2.8788085 -21.791431 -0.71409702
3.7487221 -21.848978 -0.78620315
4.6207294 -21.881384 -0.69693327
5.4700623 -21.895998 -0.87860084
5.8603354 -21.8559 -0.76762509
9.6685095 -21.895901 -0.77214205
10.596669 -21.74164 -0.63021517
9.721077 -21.525135 -0.63538939
10.332655 -21.530745 -0.77541173
10.753418 -21.466808 -0.6100775
10.94997 -21.505032 -0.61147773
11.529865 -21.15752 -0.67205
9.4127502 -20.830824 -0.61986601
9.7977123 -20.805321 -0.71399236
10.32362 -20.785252 -0.63697588
11.088954 -20.811502 -0.60006583
9.5938072 -20.676392 -0.66464639
10.665174 -20.571993 -0.62520254
10.860869 -20.638546 -0.62250888
13.44898 -20.578011 -0.62449801
14.013945 -20.586674 -0.6158874
9.2230358 -20.229414 -0.63416231
13.460998 -20.144012 -0.61338234
13.698565 -20.312435 -0.61151063
14.85774 -20.277739 -0.64940476
9.3880033 -19.924515 -0.66813993
14.740587 -19.792351 -0.68769372
16.320955 -19.631092 -0.77013052
16.806747 -19.779123 -0.60426044
17.23008 -19.726492 -0.65120494
9.0185671 -19.218187 -0.61339617
10.046877 -19.359442 -0.72176147
10.270494 -19.285181 -0.67409325
17.898664 -19.425093 -0.65617764
9.1859703 -19.052414 -0.65696144
9.3723392 -18.908154 -0.72173995
10.34918 -18.908243 -0.74139214
17.058796 -19.056831 -0.63293266
17.445343 -19.105406 -0.61799872
9.0076904 -18.331699 -0.6524235
13.073154 -17.148781 -0.78134739
13.100559 -16.938784 -0.75910747
13.229268 -16.889355 -0.76446474
13.678112 -16.935999 -0.75620663
12.80934 -16.764046 -0.77968806
12.917509 -16.795261 -0.65406561
13.640585 -16.422512 -0.66700888
14.946554 -16.309805 -0.66542244
15.133377 -16.221373 -0.62735057
13.493666 -15.706932 -0.60200286
-10.699643 -15.506729 -0.81665009
9.899848 -15.447762 -0.61151457
9.9275246 -15.435064 -0.71440053
14.827714 -15.368999 -0.61178398
14.693623 -15.184216 -0.63958526
9.7374153 -14.871438 -0.69864452
14.448694 -14.793677 -0.63195765
14.438786 -14.453681 -0.62312579
4.4811363 -14.206286 -0.81289977
4.6723475 -14.20146 -0.80956662
9.5592127 -14.325617 -0.68100667
4.8347559 -14.063824 -0.79737586
9.4064732 -13.9072 -0.67399323
-8.2809544 -13.747999 -0.85900378
-8.0434961 -13.636451 -0.85179532
12.661336 -13.601427 -0.65902102
14.185264 -13.75111 -0.60393035
9.2553749 -13.443929 -0.65896118
12.650177 -13.300451 -0.65068501
9.1101933 -12.964453 -0.63888407
12.639458 -12.999454 -0.61279237
8.979991 -12.552791 -0.6238873
8.8584843 -12.16073 -0.6085974
-0.43529415 -11.758704 -0.85313654
5.0478778 -11.248601 -0.77800024
5.2234964 -11.264593 -0.74543512
10.436535 -11.105832 -0.64609343
4.9925008 -11.081755 -0.76986766
10.499725 -11.027778 -0.62085557
10.605594 -10.935637 -0.6455695
19.758739 -10.97136 -0.75176489
19.903337 -10.85346 -0.79828644
10.758468 -10.741237 -0.61129022
10.844931 -10.604053 -0.63406056
10.931493 -10.484087 -0.62519944
12.98835 -9.9288673 -0.60826325
-7.3376131 -9.0844021 -0.7453379
-7.3181462 -8.9023046 -0.72590703
-7.0897417 -8.8428898 -0.72242498
-7.2615747 -8.5210896 -0.64444697
-7.0375004 -8.4951363 -0.68389267
-6.8556871 -8.6287098 -0.72477818
-7.2624998 -8.2945175 -0.7486214
-7.1745148 -8.151783 -0.62319505
-2.7099786 -8.1121168 -0.63659346
6.5837345 -8.1208925 -0.61474252
6.6432538 -8.1273813 -0.60573542
-7.257586 -7.9530206 -0.84001589
-7.1116519 -7.6349306 -0.74533832
-7.0769653 -7.376637 -0.82273936
-3.1101007 -7.3541107 -0.75249255
-2.7290778 -7.2401452 -0.75802481
6.4020925 -7.1963863 -0.61560863
-6.9665914 -6.6616435 -0.71168828
-5.6493382 -6.6441545 -0.89897406
0.54435778 -6.8034639 -0.64791036
0.74193382 -6.7952886 -0.61242324
0.98861825 -6.7438555 -0.62710738
-7.2391715 -6.3281221 -0.65749574
-6.9719567 -6.4579964 -0.7346434
-5.7212238 -6.3104911 -0.8212254
-5.6479855 -6.4800982 -0.84937608
-0.00053262711 -6.4427123 -0.66538608
0.19174957 -6.4500756 -0.60482788
0.42534077 -6.3844256 -0.63257706
-7.0047903 -6.1616888 -0.64356804
-6.8487477 -6.0229793 -0.63785911
-3.2359037 -6.1539888 -0.69510281
-6.994565 -5.8232174 -0.73437279
-6.8274822 -5.973557 -0.80990291
-6.9345584 -5.6226778 -0.8361764
-6.822 -5.5252199 -0.71660084
-6.8002028 -5.2526903 -0.73601168
-6.7157412 -4.9853745 -0.70343149
-6.3256412 -4.8534899 -0.67918825
-6.9206958 -4.5607281 -0.74302602
-6.6644306 -4.6369658 -0.81056261
-6.3713136 -4.6308765 -0.71444499
-7.3585987 -4.3435564 -0.711321
-7.0664072 -4.3297415 -0.68502498
-6.5823417 -4.3605862 -0.79916447
-8.4287033 -3.9217234 -0.64340091
-8.2784281 -4.0277719 -0.75699532
-7.6180854 -4.0296988 -0.84767306
-7.2489338 -4.1367188 -0.79816008
-7.1606488 -4.1473312 -0.86603796
-6.6821895 -4.1986651 -0.84518504
-8.2143803 -3.7903283 -0.78562742
-8.280221 -3.5790389 -0.75458312
-7.2919831 1.8218255 -0.63585472
-6.3488145 8.1774445 -0.61106992
-6.4068432 8.5813293 -0.63145298
-6.1846771 8.6940746 -0.60656023
-6.4646921 8.8707142 -0.64948833
-5.3673272 8.9330397 -0.63739038
-6.405014 9.1983938 -0.6638571
-6.1751437 9.2222633 -0.66259074
-5.5234146 9.0057201 -0.64209968
-6.1545043 9.3356972 -0.67618704
-5.9750381 9.3466225 -0.66845185
-5.0460849 10.137769 -0.61212641
6.3396883 -22.524872 -0.41572559
6.7676816 -22.517673 -0.32635719
7.0613399 -22.518591 -0.43628216
7.3151779 -22.533596 -0.37849361
7.6360564 -22.510937 -0.39692649
8.0014858 -22.549782 -0.37204981
8.1569347 -22.532349 -0.48047519
8.5909519 -22.551611 -0.34940696
8.7865124 -22.546104 -0.455176
9.0887909 -22.500029 -0.52761912
9.502861 -22.503929 -0.41866535
9.7388439 -22.577641 -0.32057017
9.9579458 -22.571976 -0.32405186
10.395441 -22.534668 -0.36200786
10.620542 -22.543133 -0.36092901
11.035692 -22.578066 -0.36492491
11.225748 -22.504208 -0.42316014
11.503529 -22.557737 -0.36670732
11.834021 -22.508928 -0.43047667
4.0753593 -22.346382 -0.40409768
4.3757896 -22.289646 -0.44793236
4.6192188 -22.350035 -0.44080198
5.0011783 -22.251461 -0.44065648
5.2071147 -22.350834 -0.47517204
5.5357985 -22.316236 -0.49180338
5.8596516 -22.305115 -0.40256381
6.1866679 -22.425518 -0.38195425
6.4882002 -22.371735 -0.49803036
6.7659578 -22.464359 -0.47090834
7.0297103 -22.387186 -0.45256996
7.3568192 -22.468723 -0.48758021
7.6334558 -22.398563 -0.57787323
7.8425856 -22.376072 -0.49910161
8.2848549 -22.40765 -0.45952469
8.5173368 -22.428108 -0.43279016
8.8300819 -22.396828 -0.4873316
9.2918577 -22.334297 -0.43391562
9.7224684 -22.331751 -0.48757234
9.9910164 -22.310535 -0.53216189
10.318114 -22.432425 -0.40878439
10.593271 -22.312815 -0.48302329
11.068178 -22.322262 -0.510777
11.33317 -22.270105 -0.5087117
11.650608 -22.411917 -0.48291254
11.989473 -22.300182 -0.47167236
12.199972 -22.399765 -0.4864769
3.5003264 -22.080376 -0.48867926
3.8607435 -22.150869 -0.48931599
4.3933134 -22.062786 -0.49221528
4.7134871 -21.929676 -0.52208573
5.4414449 -22.002028 -0.54124701
5.8258362 -22.082069 -0.41971466
6.1434941 -22.136179 -0.48541546
10.135479 -21.966999 -0.53089523
10.369429 -22.177128 -0.50917578
10.699533 -21.993824 -0.55208325
11.480324 -22.142231 -0.49673975
12.420559 -22.032505 -0.53327823
5.8898611 -21.878206 -0.52329636
9.7992315 -21.658194 -0.51880121
10.371263 -21.893269 -0.57246983
10.438601 -21.530464 -0.5537343
11.301116 -21.250328 -0.5438658
13.682655 -20.734386 -0.59566557
16.650108 -19.953234 -0.54360664
16.151514 -19.773262 -0.59162736
16.944794 -19.57238 -0.55971539
17.178566 -19.282606 -0.55605125
17.955471 -19.396511 -0.59283984
17.197556 -19.187603 -0.56887841
17.496134 -19.08119 -0.55635941
13.230814 -17.175209 -0.54377055
14.525331 -17.181181 -0.54318976
13.271788 -16.891315 -0.55830073
13.783115 -16.982349 -0.54837894
14.092438 -16.959248 -0.53957832
14.257458 -16.959572 -0.54222035
14.531298 -16.847031 -0.54713535
12.772281 -16.73978 -0.54970682
13.930372 -16.63142 -0.56557941
14.295908 -16.697832 -0.54759932
14.420641 -16.62084 -0.55084443
16.723183 -16.671555 -0.46406174
9.9782228 -16.234135 -0.5534085
11.036339 -16.293369 -0.57954311
14.018621 -16.447409 -0.54481447
14.10491 -16.282473 -0.53621387
14.689035 -16.477118 -0.53152514
14.786779 -16.333284 -0.52680588
11.114191 -16.014088 -0.5862484
13.747452 -16.053013 -0.56206059
13.954863 -15.960285 -0.53165656
14.296995 -16.0256 -0.53260422
14.451393 -16.014027 -0.52992511
14.807755 -16.047062 -0.51934171
8.5266256 -15.740204 -0.56967402
9.7768173 -15.627297 -0.54179907
10.731991 -15.733379 -0.56800032
13.404517 -15.745884 -0.53811836
13.673576 -15.676199 -0.52504909
13.948259 -15.623641 -0.52770114
14.18954 -15.672673 -0.54642832
14.440845 -15.672493 -0.52133572
17.448853 -15.614113 -0.47262335
8.6557617 -15.445053 -0.58344793
10.051667 -15.529694 -0.47436464
13.634327 -15.432936 -0.52516514
14.523551 -15.520079 -0.51788473
8.3999557 -15.062159 -0.54835629
9.2624187 -15.299667 -0.50576806
9.4877586 -15.059942 -0.50886214
9.6244106 -15.004152 -0.49776113
10.337666 -15.109318 -0.47878367
13.417343 -15.158009 -0.55463719
13.664033 -15.026762 -0.51277566
13.930238 -15.123877 -0.51725221
14.189781 -15.088157 -0.51163173
14.530146 -15.229618 -0.5108645
8.1592007 -14.931641 -0.52248549
8.5253325 -14.779188 -0.56220686
8.9925022 -14.865475 -0.50230181
10.038935 -14.825313 -0.46627992
10.637823 -14.862392 -0.57228684
11.371167 -14.899986 -0.41137624
13.054955 -14.914495 -0.51665658
13.472689 -14.930369 -0.52037525
13.548041 -14.779172 -0.50933915
14.359046 -14.918392 -0.51136088
14.528315 -14.93508 -0.50623626
8.287672 -14.536474 -0.53767467
9.2130117 -14.456202 -0.48957801
9.4575138 -14.411227 -0.49597216
9.7964029 -14.555838 -0.48416978
10.183902 -14.406889 -0.47477192
10.300261 -14.405309 -0.47105163
11.075769 -14.613968 -0.46152788
12.875679 -14.495441 -0.50801182
13.037267 -14.419668 -0.5137983
13.372429 -14.563227 -0.51436061
13.565834 -14.530322 -0.50957787
13.823332 -14.481411 -0.51188242
14.25907 -14.603737 -0.54424322
14.520964 -14.544665 -0.59204352
16.915714 -14.47811 -0.40307564
19.857159 -14.492368 -0.4276706
1.0751679 -14.218159 -0.55003309
4.7296839 -14.139478 -0.50054657
8.0572128 -14.370291 -0.50645202
9.1597309 -14.132354 -0.4872086
9.4889698 -14.322447 -0.53445452
9.8312492 -14.259027 -0.5105629
10.03496 -14.237096 -0.4630782
10.397895 -14.303471 -0.50408292
10.617869 -14.181793 -0.50923669
11.084827 -14.2001 -0.40875924
11.580638 -14.299608 -0.46121973
12.582056 -14.105805 -0.50251967
12.83992 -14.11316 -0.50351715
13.145176 -14.221456 -0.51071179
13.331691 -14.260414 -0.53073466
13.641382 -14.396691 -0.50693333
13.876427 -14.345039 -0.54188573
14.226917 -14.215513 -0.49874645
16.3967 -14.289685 -0.44667339
17.380451 -14.110025 -0.50098205
17.440926 -14.154062 -0.40299535
18.021646 -14.270511 -0.36813831
19.328907 -14.217473 -0.54146683
4.843915 -14.077127 -0.49611378
7.9638896 -13.897903 -0.49589336
8.1834974 -13.984182 -0.52072513
8.9636383 -14.073866 -0.4862904
9.1272087 -13.863256 -0.48386905
9.4607182 -13.90836 -0.54067063
9.8796988 -13.996836 -0.45035619
10.100574 -13.899498 -0.51315755
10.349991 -13.942256 -0.50089467
10.726419 -14.016677 -0.42795783
10.826788 -14.008086 -0.45988971
11.128246 -13.955415 -0.38675326
12.671035 -14.025651 -0.51026571
13.043048 -13.935326 -0.53019089
13.329222 -13.883102 -0.51730633
13.686773 -13.959983 -0.51545453
13.958855 -14.013309 -0.5232228
14.249125 -13.87956 -0.51865917
14.624863 -14.097501 -0.50873542
17.356417 -14.011295 -0.50763881
17.48954 -13.992474 -0.41930237
19.409899 -13.806846 -0.3735885
-8.0400858 -13.658047 -0.54373348
8.0887423 -13.513813 -0.50879472
8.303586 -13.723234 -0.53507686
8.8336687 -13.527594 -0.47596347
9.2073116 -13.69652 -0.49242365
9.4081869 -13.745333 -0.48677874
9.7706146 -13.53857 -0.47346234
10.095909 -13.596398 -0.49876374
10.425343 -13.579491 -0.5015167
10.530333 -13.544367 -0.45270509
10.929157 -13.558334 -0.41863415
11.210602 -13.566801 -0.45455617
12.360317 -13.721928 -0.50852215
12.673428 -13.657899 -0.53844595
13.002518 -13.631344 -0.50041014
13.294079 -13.575378 -0.50175738
13.553038 -13.620893 -0.51216531
13.912313 -13.635475 -0.50931042
14.278786 -13.623817 -0.5101248
18.530375 -13.562773 -0.51996064
18.898457 -13.751947 -0.53491116
7.8777695 -13.459808 -0.4859336
8.6136265 -13.253273 -0.4736672
8.9852219 -13.216814 -0.49266994
9.1360884 -13.350256 -0.51810563
9.4436245 -13.334754 -0.49476531
9.876687 -13.440454 -0.44198507
10.143369 -13.258839 -0.46233487
10.249168 -13.269388 -0.46403152
10.648017 -13.344666 -0.42381698
10.874866 -13.350175 -0.38703263
12.364506 -13.442948 -0.50588757
12.755398 -13.296075 -0.53412616
13.041926 -13.391502 -0.52228129
13.332347 -13.45281 -0.51360893
13.648117 -13.372765 -0.50340456
13.953898 -13.334693 -0.50388092
14.319134 -13.351735 -0.49805772
16.82308 -13.287374 -0.5335331
18.517353 -13.334588 -0.51458931
18.818977 -13.44825 -0.52807975
7.7980447 -13.054073 -0.47669572
8.7142525 -13.011072 -0.46440041
9.2000875 -13.146891 -0.47156537
9.7482061 -12.992893 -0.45234093
10.079071 -12.946884 -0.52542448
10.399361 -13.06139 -0.453453
10.586494 -12.960938 -0.39905667
10.890222 -12.946209 -0.44948971
12.120136 -12.993878 -0.50008059
12.449805 -13.087093 -0.49300304
12.705995 -13.032256 -0.5131712
13.035418 -13.048903 -0.50886893
13.330548 -13.062819 -0.49984813
13.61355 -12.973592 -0.50842983
13.918158 -13.148768 -0.54105914
14.112791 -13.044463 -0.51736057
16.99128 -12.95237 -0.51229012
17.31979 -12.929056 -0.50911885
17.540131 -13.054607 -0.41625869
17.81839 -12.977683 -0.50037193
19.376396 -13.173384 -0.52060354
7.7232714 -12.7026 -0.47092795
7.9204669 -12.721588 -0.49230665
8.1173878 -12.849428 -0.51381481
8.532588 -12.670473 -0.41460532
8.8610373 -12.774714 -0.46651706
9.1725979 -12.639284 -0.46974015
9.3519773 -12.802813 -0.48559773
9.7283516 -12.699946 -0.46292648
10.064425 -12.707941 -0.45008543
10.223127 -12.759855 -0.45904315
10.624892 -12.736652 -0.40941104
10.992402 -12.899137 -0.4464938
11.850758 -12.602318 -0.49595028
12.268373 -12.804606 -0.48225069
12.498885 -12.810557 -0.49282438
12.765563 -12.719447 -0.51745886
13.049994 -12.706745 -0.50789893
13.342804 -12.743145 -0.49655956
13.705727 -12.655749 -0.51372516
13.929523 -12.732996 -0.49122795
16.926807 -12.653925 -0.49891004
17.255106 -12.63341 -0.49820292
17.585045 -12.817816 -0.5095861
17.890333 -12.852183 -0.50133997
18.899176 -12.647901 -0.57312322
7.9403028 -12.386896 -0.49144
8.1998711 -12.372491 -0.45577329
8.5465946 -12.397734 -0.42578325
8.7984076 -12.450567 -0.48535466
9.0083008 -12.569784 -0.4517746
9.4988804 -12.501012 -0.48619556
9.7722731 -12.479994 -0.46652228
10.003119 -12.405158 -0.49850243
10.376882 -12.430244 -0.42567891
10.646337 -12.339137 -0.43293232
11.88682 -12.426512 -0.49600136
12.140408 -12.411739 -0.48681718
12.461383 -12.482288 -0.48573661
12.749503 -12.450467 -0.51533806
13.058275 -12.386889 -0.49520048
13.34517 -12.460069 -0.48561409
13.649853 -12.455137 -0.49743807
13.945442 -12.47661 -0.47287181
16.086916 -12.412192 -0.508753
16.385427 -12.438342 -0.49856704
16.706091 -12.493135 -0.50447732
16.877792 -12.40025 -0.4952223
17.199924 -12.373838 -0.49310738
17.594582 -12.394299 -0.48749912
7.9583464 -12.088795 -0.49396956
8.1962719 -12.053841 -0.44998315
8.5416279 -12.126864 -0.41976658
8.8780737 -12.14772 -0.46522018
9.1545267 -12.21639 -0.46954331
9.4443007 -12.229652 -0.45377189
9.7341566 -12.064061 -0.45652428
10.114688 -12.249907 -0.43971729
10.367519 -12.17338 -0.42313915
10.691978 -12.102495 -0.44221187
10.935358 -12.105082 -0.43281478
11.142239 -12.25721 -0.49774462
11.562938 -12.135941 -0.48984653
11.884513 -12.164557 -0.49006057
12.184823 -12.120964 -0.47866681
12.482287 -12.163877 -0.5044803
12.759208 -12.167179 -0.48582336
13.029467 -12.148363 -0.50440198
13.334806 -12.105476 -0.49010816
13.615444 -12.158384 -0.50648761
13.87565 -12.12756 -0.48544216
14.195937 -12.129066 -0.4557721
14.869055 -12.140042 -0.47794205
15.078484 -12.049003 -0.49162871
15.826071 -12.167152 -0.50659686
16.150599 -12.003967 -0.49051756
16.271709 -12.229807 -0.43691117
16.77548 -12.076438 -0.48063883
17.051453 -12.112307 -0.48602855
17.308502 -12.159839 -0.44691223
17.59296 -12.031332 -0.44967866
19.174532 -12.025793 -0.40345144
7.6835155 -11.989997 -0.46205655
7.8878503 -11.712858 -0.48059589
8.3330574 -11.90599 -0.42839473
8.5479221 -11.82978 -0.43384892
8.8293676 -11.75279 -0.46844554
9.2098331 -11.800152 -0.46545747
9.4549894 -11.84921 -0.42747268
9.781023 -11.885698 -0.45357919
10.077962 -11.856773 -0.40886548
10.39024 -11.832045 -0.42439121
10.634296 -11.867821 -0.43255633
10.892504 -11.803378 -0.49046031
11.254163 -11.779903 -0.50620437
11.563782 -11.914389 -0.48822826
11.90524 -11.846937 -0.4833369
12.122086 -11.830393 -0.47817859
12.487177 -11.867696 -0.49590194
12.77968 -11.86806 -0.49605429
13.060673 -11.902889 -0.48583126
13.292981 -11.809201 -0.49713337
13.614595 -11.84349 -0.50179929
13.955805 -11.881245 -0.47022569
14.179373 -11.900558 -0.46923447
14.507393 -11.841955 -0.46952644
15.189346 -11.850487 -0.499219
15.483213 -11.842334 -0.49746192
15.727662 -11.851423 -0.49262261
16.02005 -11.834446 -0.48251826
16.342499 -11.907316 -0.45649499
16.667822 -11.769846 -0.47133178
16.928402 -11.791492 -0.46998668
17.253397 -11.76148 -0.49131054
17.480324 -11.710806 -0.35450512
17.813522 -11.894877 -0.44544297
18.321507 -11.986839 -0.40224952
-0.21930599 -11.502405 -0.37954593
6.4583282 -11.524128 -0.40194321
6.7481499 -11.497871 -0.40327454
7.4732552 -11.417749 -0.44071662
7.6210432 -11.67343 -0.45419174
8.0652323 -11.689735 -0.46763808
8.2540665 -11.560648 -0.4213441
8.5572281 -11.498852 -0.43281794
8.8792171 -11.667805 -0.44341731
9.2782726 -11.485212 -0.42946848
9.4835958 -11.537551 -0.44950023
9.7768269 -11.511312 -0.42911425
10.049524 -11.458593 -0.42266634
10.32567 -11.606789 -0.41130751
10.669529 -11.557169 -0.47384256
10.942106 -11.564587 -0.51212466
11.289864 -11.550657 -0.4827342
11.566642 -11.54419 -0.48529282
11.908386 -11.554664 -0.48063937
12.184227 -11.549899 -0.48708162
12.4839 -11.537251 -0.48381108
12.722171 -11.541723 -0.49333355
13.032185 -11.555898 -0.48205498
13.379302 -11.581663 -0.50110865
13.587712 -11.557278 -0.46752256
14.00389 -11.526607 -0.47326624
14.336958 -11.666943 -0.46683735
14.654854 -11.626781 -0.4873662
14.860347 -11.495854 -0.47136837
15.228761 -11.582686 -0.49516445
15.458298 -11.533756 -0.48141208
15.800799 -11.565413 -0.47662219
15.973803 -11.535261 -0.42983085
16.318218 -11.575514 -0.47102034
16.607704 -11.524029 -0.46198878
16.893867 -11.487496 -0.45925525
17.175039 -11.469649 -0.42426428
17.523596 -11.66513 -0.36075103
17.79311 -11.584299 -0.43175873
18.165562 -11.64968 -0.39240724
18.495911 -11.608156 -0.3571007
20.425472 -11.457229 -0.43921
21.864931 -11.440007 -0.34060574
21.957829 -11.442074 -0.42021412
4.9570398 -11.164274 -0.49576828
5.2367039 -11.246893 -0.44669339
6.6009002 -11.102253 -0.39987266
7.046103 -11.347833 -0.4048636
7.4499741 -11.190697 -0.43662536
7.7300606 -11.229075 -0.45062727
8.0367565 -11.238899 -0.41865024
8.2611942 -11.249629 -0.42192194
8.571003 -11.162308 -0.42940617
8.8651695 -11.276262 -0.42400271
9.2054482 -11.180432 -0.41685575
9.4237995 -11.267225 -0.44407231
9.7059469 -11.251151 -0.40908146
10.07358 -11.217924 -0.39797053
10.338037 -11.226143 -0.41490346
10.68485 -11.228195 -0.46181923
10.991426 -11.279738 -0.49865565
11.292719 -11.268031 -0.4908925
11.582366 -11.266432 -0.47851965
11.919243 -11.205597 -0.48154861
12.128713 -11.267453 -0.48147288
12.475441 -11.262153 -0.48970807
12.741201 -11.199308 -0.50743693
13.058529 -11.227157 -0.48698828
13.377926 -11.276456 -0.49606752
13.623731 -11.268435 -0.46144015
13.930017 -11.27076 -0.4639689
14.257876 -11.228247 -0.48151129
14.54191 -11.188992 -0.45432478
14.840406 -11.233744 -0.48620009
15.123967 -11.264227 -0.4797143
15.490091 -11.188567 -0.46905157
15.710436 -11.354641 -0.47896194
16.027397 -11.294621 -0.46163243
16.33882 -11.216041 -0.42887291
16.692663 -11.186934 -0.45239139
16.953901 -11.198822 -0.34379601
17.257015 -11.258223 -0.43939972
17.660803 -11.290222 -0.39434072
17.999561 -11.336539 -0.32838166
18.148808 -11.260675 -0.39426801
4.8813124 -10.938896 -0.45607668
6.7861052 -11.075135 -0.39774358
7.0675783 -10.946991 -0.39913082
7.3703012 -10.888596 -0.42826915
7.6255221 -10.923701 -0.43618417
7.9871197 -10.970474 -0.4197503
8.2709093 -10.940867 -0.41911489
8.4646301 -10.932988 -0.41754091
8.8717289 -10.941286 -0.41966528
9.1539822 -10.914118 -0.42917055
9.4177418 -10.984091 -0.4224112
9.7367163 -10.944876 -0.39593944
10.077074 -10.925961 -0.42297524
10.387527 -10.922234 -0.44394597
10.684571 -10.955849 -0.48200044
10.883404 -10.927794 -0.50216424
11.216452 -10.954922 -0.49365488
11.563102 -10.958273 -0.48094615
11.850684 -10.916424 -0.46816278
12.147602 -10.928857 -0.47772774
12.4484 -10.946809 -0.47443557
12.746111 -10.964903 -0.4826645
13.05179 -10.982574 -0.47715828
13.320231 -10.945459 -0.48910335
13.674666 -10.944679 -0.46492872
13.907006 -10.887922 -0.46578789
14.34938 -10.952704 -0.46920794
14.539877 -10.948934 -0.47736505
14.867993 -10.90609 -0.46754748
15.196399 -10.976318 -0.46554786
15.703726 -10.938984 -0.44126651
16.064705 -10.928114 -0.4144578
16.377087 -10.931395 -0.40010568
16.592443 -10.957341 -0.37969947
17.16062 -11.012877 -0.38594794
17.824373 -10.956348 -0.39618355
19.841518 -10.984093 -0.4814173
6.4836617 -10.648545 -0.39533329
6.7377872 -10.677138 -0.39299619
7.0008039 -10.616135 -0.39231455
7.3981104 -10.671734 -0.424261
7.6516542 -10.622828 -0.43631893
7.9707394 -10.671686 -0.41994488
8.2438755 -10.663696 -0.42469662
8.5861301 -10.591589 -0.4114233
8.8553486 -10.632778 -0.40590644
9.1310949 -10.650886 -0.40812504
9.4465084 -10.667789 -0.41019422
9.7408085 -10.659652 -0.39140773
10.09033 -10.68358 -0.43351701
10.296629 -10.634583 -0.41257319
10.648014 -10.616087 -0.48404801
10.937613 -10.657074 -0.5075531
11.248911 -10.651816 -0.49869514
11.551087 -10.672403 -0.46597257
11.779303 -10.602777 -0.47411814
12.138241 -10.660042 -0.47681236
12.456582 -10.652302 -0.47734648
12.757704 -10.649514 -0.47349721
13.06378 -10.641397 -0.47972083
13.276617 -10.682983 -0.47300708
13.64348 -10.603601 -0.46767598
14.041949 -10.642637 -0.47652835
14.215036 -10.65511 -0.47127849
14.545618 -10.651165 -0.46464759
14.872204 -10.648414 -0.45060772
15.089586 -10.672672 -0.4560163
15.392735 -10.634374 -0.44477883
15.71519 -10.608728 -0.40058395
16.023251 -10.610935 -0.37118268
16.293579 -10.612779 -0.41287541
16.611036 -10.673312 -0.42077106
17.088505 -10.762618 -0.38432407
17.226021 -10.740943 -0.39246279
18.194878 -10.59458 -0.39229465
-3.2973862 -10.230917 -0.30133867
6.2287097 -10.376763 -0.36640275
6.782773 -10.279084 -0.38487411
7.0189333 -10.254597 -0.40155861
7.3465047 -10.375708 -0.41938266
7.6863966 -10.304961 -0.43426168
7.9137788 -10.38624 -0.42253932
8.2119274 -10.374254 -0.42079514
8.517498 -10.326782 -0.40281877
8.8732853 -10.353977 -0.40507489
9.187109 -10.378426 -0.39682779
9.4588642 -10.34368 -0.38232213
9.7738876 -10.406013 -0.38438255
10.073676 -10.397112 -0.4193925
10.340542 -10.341742 -0.40642738
10.630016 -10.352539 -0.46516553
10.965199 -10.391217 -0.53574377
11.270864 -10.375578 -0.48851681
11.537014 -10.334781 -0.47261462
11.857731 -10.336672 -0.46798089
12.141601 -10.351231 -0.48893493
12.465721 -10.340225 -0.47004932
12.758645 -10.350609 -0.46315956
13.016598 -10.335848 -0.47182843
13.360329 -10.326095 -0.45860878
13.684112 -10.335074 -0.4653863
13.91957 -10.350568 -0.46943745
14.217344 -10.305651 -0.46190077
14.577209 -10.349789 -0.45596129
14.837341 -10.278598 -0.41828045
15.078857 -10.388824 -0.40763006
15.42178 -10.365096 -0.4087851
15.720224 -10.331857 -0.38894579
15.951723 -10.361122 -0.35507017
16.293102 -10.341278 -0.3912214
16.605927 -10.282579 -0.38835645
16.968054 -10.476706 -0.38900375
17.165993 -10.268967 -0.38121447
19.05217 -10.483289 -0.38675058
5.782639 -10.087287 -0.3805511
6.1280966 -10.026864 -0.34873617
6.3949995 -10.159617 -0.38927233
6.7444215 -9.9254446 -0.38095486
7.053731 -10.021141 -0.40091047
7.3548598 -10.098505 -0.42254281
7.6357446 -10.020247 -0.418055
7.9430308 -10.07023 -0.40532357
8.25243 -10.031368 -0.4241206
8.5903044 -10.075966 -0.41309354
8.8588705 -10.041117 -0.40419841
9.1342659 -10.074023 -0.40173918
9.4855194 -10.096632 -0.36235666
9.7664604 -10.032522 -0.39714119
10.065857 -10.041581 -0.41171482
10.398496 -10.032491 -0.427452
10.6159 -10.067304 -0.47303265
10.948184 -10.06225 -0.46390602
11.265352 -10.043937 -0.48183903
11.582017 -10.019265 -0.47720248
11.82268 -10.06415 -0.46869138
12.142604 -10.033121 -0.47169307
12.45983 -10.051387 -0.46573848
12.743234 -10.052706 -0.45308676
13.050483 -10.057144 -0.45562157
13.35286 -10.008796 -0.45841107
13.654605 -10.041342 -0.45259234
13.94874 -10.053105 -0.45841563
14.253738 -10.010845 -0.45024019
14.530659 -10.075321 -0.44903392
14.827075 -10.045097 -0.42404824
15.145804 -10.072266 -0.39240205
15.463696 -10.01982 -0.37627003
15.819353 -10.041386 -0.42876124
16.013912 -10.018147 -0.39621395
16.306887 -10.0469 -0.38196328
16.604107 -10.025015 -0.35104322
16.852642 -10.094229 -0.40750471
17.263603 -10.035965 -0.40938073
17.740479 -10.094828 -0.38271534
18.502354 -10.095494 -0.37387773
22.657871 -9.9258804 -0.31106889
5.8286324 -9.6135483 -0.38169467
6.0996356 -9.6956463 -0.39397508
6.4659109 -9.7597198 -0.3801319
6.7788663 -9.6280756 -0.37973773
7.0353942 -9.690135 -0.39350581
7.3679948 -9.7239323 -0.40037909
7.6281481 -9.8394966 -0.39846942
7.9503827 -9.7284498 -0.40613312
8.2604218 -9.7389326 -0.40449837
8.5530491 -9.7253256 -0.40664536
8.8641968 -9.7732582 -0.40166637
9.184536 -9.7464008 -0.38627622
9.4926405 -9.7309532 -0.38415301
9.7781067 -9.6768551 -0.40064207
10.100759 -9.7417374 -0.41535863
10.379785 -9.7802324 -0.44353044
10.65337 -9.7882891 -0.46988752
10.929941 -9.7309761 -0.47531903
11.251167 -9.7441959 -0.47646004
11.548146 -9.764945 -0.48229453
11.831597 -9.7199278 -0.4700321
12.165369 -9.7312393 -0.44808227
12.450014 -9.7430916 -0.45924839
12.758618 -9.762517 -0.46379
13.052748 -9.712018 -0.4581638
13.357253 -9.7343931 -0.46046647
13.673206 -9.7583141 -0.4490371
13.943873 -9.7508106 -0.4503569
14.263811 -9.7285814 -0.44354889
14.585903 -9.7415867 -0.40068823
14.853352 -9.7491732 -0.3796061
15.142725 -9.7402105 -0.40552288
15.408699 -9.7401342 -0.40554959
15.700723 -9.7666016 -0.39851364
16.056816 -9.7733507 -0.37032405
16.255062 -9.7592726 -0.37658864
16.703995 -9.8185787 -0.38110805
17.349459 -9.6584702 -0.37618071
18.012886 -9.7493773 -0.36570501
18.320038 -9.78088 -0.39549398
-7.2711625 -9.3364153 -0.34817213
5.5624585 -9.4187117 -0.36757517
5.9790654 -9.3532619 -0.39085442
6.137042 -9.4821701 -0.38411981
6.5031457 -9.4966002 -0.40612355
6.7963748 -9.4311857 -0.38748538
7.0897098 -9.4051838 -0.38216442
7.3489051 -9.4137859 -0.40419444
7.6334624 -9.4610748 -0.38748825
7.9476581 -9.4498463 -0.40761063
8.2672672 -9.4295197 -0.40066764
8.5221529 -9.4268589 -0.40524641
8.8311758 -9.4626007 -0.40128967
9.162035 -9.4624434 -0.36923271
9.4482937 -9.4455976 -0.38228562
9.7463789 -9.4452534 -0.38863435
10.038725 -9.4287796 -0.4094339
10.346596 -9.4451065 -0.43622875
10.683779 -9.4614697 -0.4580884
10.998566 -9.4210281 -0.46621928
11.240136 -9.4553528 -0.45354992
11.563622 -9.4382277 -0.48416439
11.861833 -9.4190474 -0.45288908
12.134964 -9.4423838 -0.44702646
12.455651 -9.45012 -0.45226997
12.753185 -9.4464445 -0.45652133
13.037166 -9.4339695 -0.46550962
13.354043 -9.4636116 -0.45282274
13.626889 -9.4502058 -0.44702646
13.924881 -9.4477873 -0.44452783
14.282459 -9.4340506 -0.39031935
14.528457 -9.4836426 -0.3887805
14.823833 -9.4533224 -0.41365808
15.171502 -9.4888611 -0.39459342
15.441198 -9.4209185 -0.40005767
15.754044 -9.5246401 -0.39444655
15.980979 -9.5069838 -0.37017557
16.346315 -9.4211969 -0.36236972
16.685596 -9.4862089 -0.30796158
16.935104 -9.4812469 -0.39186394
17.602097 -9.4337082 -0.3909713
22.650803 -9.4431343 -0.30612552
-7.3294821 -9.1923552 -0.36728597
5.5556922 -9.1448355 -0.37736094
5.8474627 -9.1701164 -0.38919652
6.2351108 -9.1100998 -0.3976053
6.4952869 -9.1922493 -0.39194295
6.7243743 -9.1412344 -0.38276434
7.0659065 -9.134799 -0.39179683
7.3604908 -9.1430655 -0.38887653
7.6554103 -9.1720009 -0.38653779
7.9095407 -9.1508293 -0.39237595
8.2549057 -9.1509962 -0.40375212
8.5593596 -9.1666842 -0.40374434
8.8429909 -9.1586866 -0.40122369
9.1646852 -9.1408758 -0.38790399
9.4258385 -9.1266193 -0.39639273
9.7580853 -9.1321278 -0.38876173
10.008644 -9.1069965 -0.41462144
10.325333 -9.1492205 -0.43511596
10.670523 -9.1472549 -0.44970512
10.986913 -9.0879717 -0.44682574
11.26173 -9.1431561 -0.45811403
11.535259 -9.1381388 -0.44907331
11.846994 -9.1708584 -0.45051616
12.147455 -9.1498613 -0.44965512
12.443547 -9.1524277 -0.45252976
12.751923 -9.1491013 -0.46158955
13.054869 -9.1605272 -0.45029941
13.362487 -9.1554365 -0.44713846
13.626881 -9.1612654 -0.41660669
13.937012 -9.1412668 -0.38374972
14.221844 -9.1824341 -0.38889802
14.558909 -9.1394835 -0.40351719
14.839965 -9.1399765 -0.39298972
15.116491 -9.1843605 -0.39686117
15.474504 -9.1489935 -0.40662357
16.040318 -9.1174927 -0.35495847
16.398701 -9.0829182 -0.33305603
16.581188 -9.212038 -0.39309293
17.020058 -9.2814026 -0.37323964
17.135485 -9.0706844 -0.40921766
20.835556 -9.0931015 -0.34711134
-7.2506371 -8.801713 -0.34573188
-7.142756 -8.8463316 -0.46768093
-6.8179412 -8.7000294 -0.40421432
2.2155981 -8.8764057 -0.43814525
5.2906733 -8.8721027 -0.36790788
5.5535603 -8.8007536 -0.37957987
5.906899 -8.8411598 -0.39563116
6.1982694 -8.8427963 -0.40581086
6.4793124 -8.8389111 -0.39225602
6.732388 -8.8430882 -0.37625071
7.0406046 -8.8422546 -0.38079965
7.3435879 -8.8430252 -0.38501918
7.665329 -8.8476763 -0.3919543
7.9745378 -8.8485479 -0.38560462
8.2363262 -8.8577776 -0.39587641
8.5326223 -8.8223019 -0.40303826
8.8369341 -8.8529882 -0.39249811
9.1315269 -8.8339624 -0.37904856
9.4492598 -8.8511734 -0.38146061
9.7473497 -8.8271608 -0.38455895
10.035657 -8.8403339 -0.40510789
10.304327 -8.8200541 -0.42824611
10.664906 -8.8126993 -0.43902382
10.962826 -8.8382168 -0.45171124
11.213977 -8.853878 -0.45253462
11.445911 -8.8707094 -0.43912634
11.892971 -8.8902683 -0.4601157
12.153593 -8.8624859 -0.45029593
12.416658 -8.8205709 -0.4522191
12.744188 -8.8331785 -0.44231948
13.049099 -8.8690844 -0.45146248
13.379588 -8.8447065 -0.43132189
13.654285 -8.8644104 -0.40529865
13.942094 -8.8548183 -0.4044255
14.226215 -8.8819561 -0.41574541
14.517314 -8.8434658 -0.41120133
14.837921 -8.8205566 -0.39451739
15.145927 -8.8422079 -0.38634747
15.466002 -8.8276148 -0.36853015
15.726448 -8.9257526 -0.37354422
16.048328 -8.9662981 -0.35968027
16.303219 -8.7561665 -0.38273048
16.807018 -8.7475157 -0.40865618
20.645741 -8.8916254 -0.3451255
20.782658 -8.8928347 -0.31259322
21.227287 -8.8467827 -0.30087191
-7.2960429 -8.4944744 -0.45151752
-7.1116476 -8.5538073 -0.39353824
-6.884644 -8.6964245 -0.34975433
2.3019915 -8.5315056 -0.42945814
2.6247425 -8.4380016 -0.36255449
5.1744351 -8.6528025 -0.36703724
5.5155172 -8.5742874 -0.38579237
5.8090601 -8.5466938 -0.39156955
6.1327772 -8.5352917 -0.40024504
6.4280086 -8.5955057 -0.39595315
6.7693095 -8.5791187 -0.38383919
7.0607686 -8.4861622 -0.38678464
7.3587832 -8.5698557 -0.38299111
7.6519709 -8.528223 -0.38486356
7.9974561 -8.5566444 -0.38946918
8.2573395 -8.5600939 -0.39360443
8.5435696 -8.5504646 -0.39588138
8.8549213 -8.562356 -0.39177856
9.1491537 -8.5558538 -0.387615
9.4341917 -8.563693 -0.37494108
9.7325583 -8.5363932 -0.38823396
10.024321 -8.5347757 -0.41390836
10.288741 -8.5420074 -0.42716092
10.653683 -8.5659342 -0.43442896
10.958377 -8.5609541 -0.43882415
11.185758 -8.6089039 -0.44176885
11.909575 -8.5553236 -0.45022643
12.146932 -8.5535841 -0.45791182
12.443621 -8.5424461 -0.45212668
12.753196 -8.536664 -0.43697244
13.066872 -8.55548 -0.41961324
13.370094 -8.5637598 -0.4132098
13.697576 -8.5635004 -0.42335683
13.944545 -8.5458508 -0.41303813
14.257074 -8.5732479 -0.40784615
14.568108 -8.4997616 -0.38037479
14.840908 -8.5380716 -0.37459886
15.099452 -8.6795578 -0.40226999
15.415102 -8.5583477 -0.3631416
15.810836 -8.5821743 -0.35819221
16.048836 -8.5467358 -0.36210668
16.302673 -8.615324 -0.34991771
16.579414 -8.4689646 -0.35150766
20.635317 -8.5323229 -0.31777662
-7.2620173 -8.3164091 -0.42439577
-7.190361 -8.2940559 -0.38042954
3.2498136 -8.1803637 -0.37948754
5.0283527 -8.1163912 -0.35978484
5.2092438 -8.276577 -0.36523068
5.5089159 -8.2525053 -0.38065368
5.8333321 -8.3078451 -0.38451397
6.123281 -8.2784224 -0.38652989
6.483274 -8.2472935 -0.37615752
6.7888813 -8.2371645 -0.38454488
7.0671687 -8.2061777 -0.38216215
7.3470945 -8.2720356 -0.38371217
7.6395974 -8.2658243 -0.38684243
7.966517 -8.2445831 -0.38269764
8.2561884 -8.2828817 -0.38889244
8.5646744 -8.247365 -0.38143954
8.8373632 -8.2502279 -0.38484374
9.1321993 -8.2556448 -0.38838226
9.4263077 -8.2870874 -0.37543583
9.7660847 -8.2790003 -0.38695723
10.056394 -8.2529154 -0.40267128
10.346259 -8.2795868 -0.41931042
10.642691 -8.2616873 -0.43191701
10.938066 -8.2822485 -0.43299028
11.673146 -8.2417212 -0.43335924
11.819938 -8.2433729 -0.4377946
12.154758 -8.2610226 -0.42761528
12.438354 -8.2525644 -0.45234981
12.765417 -8.24751 -0.41935176
13.040505 -8.2514935 -0.42454895
13.353426 -8.2739105 -0.41410831
13.649999 -8.2649164 -0.40615651
13.968156 -8.2355127 -0.39341587
14.252158 -8.2772169 -0.38674101
14.543039 -8.2295322 -0.36729264
14.858161 -8.2255096 -0.36250812
15.169233 -8.2513599 -0.35478055
15.438053 -8.2314377 -0.33754784
15.716255 -8.2198658 -0.36253184
16.025188 -8.2781067 -0.34579763
-7.2302222 -8.0105133 -0.49262723
-7.1382008 -8.0105925 -0.31816846
-2.7461495 -8.098753 -0.43754125
4.84062 -7.9695969 -0.36020255
5.2548723 -7.9162879 -0.36245412
5.5524092 -7.9492979 -0.37717873
5.8635139 -7.9546003 -0.38131365
6.1520987 -7.9457083 -0.37724555
6.4286737 -7.9172502 -0.372325
6.7645955 -7.9233789 -0.37352973
7.0606875 -7.9806447 -0.37491333
7.3414521 -7.9522409 -0.38633391
7.663043 -7.9420652 -0.37486941
7.9549069 -7.9549603 -0.37463072
8.2588863 -7.9689803 -0.38126236
8.5700893 -7.9296231 -0.37904397
8.8438034 -7.9501815 -0.36951655
9.1510487 -7.9462671 -0.38004145
9.4603176 -7.9681311 -0.36722267
9.767971 -7.994422 -0.37991288
10.049031 -7.9758148 -0.40503874
10.349337 -7.9465837 -0.41154873
10.680757 -7.9318709 -0.41837132
10.866063 -7.9860129 -0.41007951
11.379509 -7.8098269 -0.42081189
11.576364 -7.9731588 -0.42609453
11.828761 -7.953958 -0.40234685
12.139468 -7.9520631 -0.41301528
12.452368 -7.9382648 -0.41367692
12.73004 -7.9596329 -0.40929353
13.038052 -7.948916 -0.40353706
13.345709 -7.9390788 -0.40088907
13.648433 -7.9417238 -0.39716387
13.920548 -7.9583015 -0.39579925
14.250326 -7.9462633 -0.37834781
14.589407 -7.9140358 -0.36563268
14.827038 -7.983789 -0.35298404
15.179133 -7.9730749 -0.34931016
15.397753 -7.9233932 -0.36133829
15.881029 -7.9993486 -0.35717064
-7.2388735 -7.7850323 -0.44346583
-7.122406 -7.5827694 -0.51415527
-3.1204467 -7.7495017 -0.44996962
-2.9632063 -7.7404156 -0.35024384
5.0613098 -7.6391578 -0.35949373
5.3152137 -7.6271296 -0.36511612
5.5350084 -7.588789 -0.35830927
5.8702812 -7.7090478 -0.37482733
6.1322894 -7.6706777 -0.38735968
6.4462457 -7.6761866 -0.3703815
6.7370296 -7.650063 -0.37403208
7.0436316 -7.6328478 -0.37975028
7.3418961 -7.6290259 -0.37724599
7.6508608 -7.6668119 -0.37452322
7.9623575 -7.6424685 -0.37567279
8.2431364 -7.6805511 -0.37859291
8.5520611 -7.6356978 -0.37825373
8.863162 -7.6642256 -0.37417421
9.1678677 -7.6459885 -0.37510529
9.4384518 -7.6530542 -0.38146567
9.7595558 -7.6396232 -0.37688509
10.083419 -7.6316442 -0.3962532
10.326939 -7.6401768 -0.40841988
10.616282 -7.6258578 -0.40133148
10.827499 -7.7256804 -0.32323086
11.294731 -7.639698 -0.39719662
11.551516 -7.6494036 -0.40640208
11.843169 -7.6311822 -0.39241797
12.170761 -7.6373453 -0.38985658
12.44826 -7.6457419 -0.40557906
12.76356 -7.6552386 -0.41656524
13.026359 -7.6290522 -0.42304814
13.339634 -7.6558013 -0.39600122
13.684183 -7.6655822 -0.39530098
13.964896 -7.6489043 -0.38590285
14.258705 -7.6667833 -0.37539327
14.518142 -7.6439114 -0.36284938
14.829074 -7.5956078 -0.34484282
15.120112 -7.6030121 -0.35662058
15.590498 -7.695457 -0.34681296
15.806223 -7.6255927 -0.33852351
16.503214 -7.6313138 -0.32270205
-7.0728984 -7.3703876 -0.44922861
-3.2458501 -7.2847581 -0.50303352
-2.7828994 -7.2047644 -0.58539617
4.4348001 -7.3049808 -0.34685498
4.6554956 -7.324738 -0.35085875
4.9178414 -7.305747 -0.35573441
5.292037 -7.3806868 -0.36458892
5.5968556 -7.3103075 -0.37245238
5.825139 -7.3669081 -0.37462908
6.1400962 -7.3979874 -0.37469396
6.4648628 -7.3786092 -0.3660579
6.7774982 -7.3239317 -0.36663246
7.0458379 -7.3564939 -0.3726365
7.3257751 -7.3403287 -0.36966798
7.638958 -7.3441491 -0.36912501
7.9323754 -7.3663049 -0.37074655
8.2350121 -7.3542418 -0.36906958
8.573164 -7.3521953 -0.36830518
8.8473253 -7.363874 -0.36933246
9.1265707 -7.3595605 -0.36794525
9.4600725 -7.3406744 -0.37902808
9.7197704 -7.3585215 -0.38417786
10.036906 -7.3401833 -0.40587103
10.354203 -7.3460965 -0.39753923
10.640439 -7.3874784 -0.35539207
10.933064 -7.255537 -0.32668471
11.286112 -7.343071 -0.41076687
11.559599 -7.3577461 -0.410036
11.852596 -7.349009 -0.41945255
12.124675 -7.356709 -0.39070061
12.432611 -7.3438673 -0.39777735
12.715434 -7.3310905 -0.4063403
13.053911 -7.3587847 -0.41610727
13.329808 -7.333837 -0.41476321
13.665354 -7.3398962 -0.40148586
13.959468 -7.33178 -0.37518534
14.246858 -7.3768325 -0.36465132
14.505376 -7.3289819 -0.34994769
14.809834 -7.2894325 -0.35697469
15.119612 -7.2866964 -0.35132268
15.472529 -7.4219451 -0.33355853
16.282524 -7.3966932 -0.32056481
-2.8359084 -7.1649432 -0.41160536
0.74292648 -7.0780067 -0.33658755
0.96509409 -6.9694624 -0.37315106
4.1603107 -7.1605148 -0.34821725
4.6368513 -6.9052744 -0.34911883
4.926249 -7.0471606 -0.35524741
5.2838616 -7.0698113 -0.34826973
5.5231714 -7.0130224 -0.36488867
6.2699747 -7.0209327 -0.36127242
6.4634991 -7.0634966 -0.3605831
6.7861466 -7.0402169 -0.35879824
7.0758867 -7.0776629 -0.36505401
7.3619933 -7.0592966 -0.37140143
7.6794977 -7.0248313 -0.36932802
7.971693 -7.0548902 -0.37210426
8.2702742 -7.0587931 -0.35772726
8.5725851 -7.0721488 -0.36553997
8.8460588 -7.0332832 -0.36404115
9.1213427 -7.0684333 -0.35721889
9.4385662 -7.0748382 -0.37757769
9.7458534 -7.0418925 -0.3973065
10.05109 -7.0235825 -0.39746237
10.241301 -7.0595565 -0.37537777
11.286475 -7.045567 -0.38765961
11.583617 -7.0690446 -0.39551607
11.849218 -7.0640578 -0.39933205
12.169332 -7.0782094 -0.39022294
12.421082 -7.0521913 -0.37439853
12.74685 -7.0343184 -0.40193355
13.000951 -7.0846 -0.39129809
13.327847 -7.0506754 -0.41029936
13.629915 -7.0380425 -0.39720446
13.912955 -7.040144 -0.38464695
14.189208 -7.0791316 -0.36805648
14.473955 -7.0680752 -0.364086
14.886808 -7.1379471 -0.34250492
15.044059 -7.1052132 -0.33302075
-6.9676518 -6.7393866 -0.37890136
-6.1718965 -6.60463 -0.34702045
-5.6875057 -6.6203251 -0.44428045
-0.16878295 -6.7206373 -0.32274368
0.48257408 -6.7120242 -0.42469272
0.75315934 -6.7482657 -0.4254252
0.99651891 -6.8243928 -0.43510476
1.2837534 -6.6453409 -0.41206899
1.9935544 -6.6300645 -0.38482058
4.4339738 -6.7455235 -0.3565619
4.561336 -6.6751652 -0.35235
4.8800793 -6.6102495 -0.41069579
5.1454582 -6.8704138 -0.3461495
6.5170221 -6.7302327 -0.35147554
6.7186942 -6.7111492 -0.36114585
7.0611134 -6.7341485 -0.35855785
7.3519711 -6.7307153 -0.35881823
7.6524506 -6.7409678 -0.36685461
7.951766 -6.7536917 -0.36377472
8.242177 -6.7590694 -0.35723782
8.548542 -6.7628837 -0.35059294
8.8376894 -6.741106 -0.35157233
9.1456738 -6.7539988 -0.35742852
9.4624968 -6.7627044 -0.37410745
9.7317371 -6.7569962 -0.38778424
10.04771 -6.7553215 -0.34378049
10.22661 -6.8351626 -0.32475924
10.995042 -6.6977077 -0.35070288
11.246646 -6.7973871 -0.3651768
11.54594 -6.7283239 -0.36783558
11.805151 -6.8983059 -0.38072157
12.165292 -6.7530665 -0.35480359
12.422478 -6.7721219 -0.36572853
12.755121 -6.7287521 -0.37751698
13.029476 -6.749938 -0.37588793
13.355085 -6.7584133 -0.39062804
13.623353 -6.7282362 -0.3709707
13.961058 -6.7497635 -0.35250324
14.196635 -6.7929955 -0.34931201
-6.9770656 -6.4879546 -0.40080702
-6.2409306 -6.3935304 -0.54155767
-5.7420611 -6.5246048 -0.39344957
-5.6557341 -6.519526 -0.47655183
-0.9145174 -6.3596172 -0.31455374
-0.0089392662 -6.4789562 -0.47269219
0.19912255 -6.463563 -0.3541708
0.45470271 -6.4438658 -0.42881161
0.77016515 -6.4417071 -0.39617282
0.9999249 -6.475441 -0.41645032
1.4058641 -6.3632269 -0.35605034
1.5143895 -6.3611536 -0.41396856
1.8982773 -6.433713 -0.38414434
2.2792149 -6.39781 -0.37578377
2.4341698 -6.3144898 -0.31118673
3.9502063 -6.3419428 -0.33432981
4.4500828 -6.5782757 -0.3214615
4.7034125 -6.504662 -0.35852903
4.9574943 -6.4123607 -0.346674
5.2515097 -6.4486685 -0.33316457
5.4799967 -6.3192539 -0.35435313
6.5761023 -6.5308256 -0.35787442
7.12116 -6.4397006 -0.33841154
7.361423 -6.4512506 -0.35475609
7.6720915 -6.4627395 -0.35707498
7.9669123 -6.4518156 -0.34591115
8.2706709 -6.4518371 -0.35037428
8.5387182 -6.4293399 -0.35583055
8.8525391 -6.4412842 -0.35314226
9.1360455 -6.4404755 -0.34854549
9.4292898 -6.4687791 -0.35280046
9.7553263 -6.461019 -0.35758945
9.9429436 -6.4549193 -0.32185167
10.468127 -6.3979521 -0.30954337
10.669628 -6.4172382 -0.33937627
10.929427 -6.4687614 -0.3538442
11.225904 -6.4307742 -0.33003137
11.562719 -6.4723368 -0.31907949
11.887432 -6.4708571 -0.35450882
