1578
-7.0997057 -0.56722039 6.7058649
-6.6594977 -0.47680688 6.7644711
-6.5188704 -0.55874884 6.6317134
-7.4765863 -0.28095809 6.687192
-7.348465 -0.38302088 6.7216911
-7.1176977 -0.29477131 6.6896105
-7.9497333 -0.003111124 6.7186236
-7.2780371 -0.036615133 6.7993894
-7.0914092 -0.072166011 6.6941824
-6.9697261 -0.1506322 6.6677456
-6.5983448 -0.16629505 6.7695646
-7.0118055 0.042470217 6.6513958
-6.9155302 0.036593437 6.7036891
-7.2718258 0.39217663 6.7764006
-7.1276388 0.21293712 6.7080913
20.49991 1.7984674 6.7557712
20.681444 1.784632 6.6918573
23.714373 1.7795948 6.6986628
24.445824 1.7823644 6.6490493
25.512253 1.7722058 6.7723927
25.687366 1.776016 6.6182814
25.856516 1.7658761 6.71738
4.1159768 1.9192966 6.7167978
4.301692 1.9763535 6.697113
4.4984779 1.9699621 6.6905394
4.7356043 1.9608744 6.6955357
14.526596 1.964399 6.6928406
14.701099 1.9375488 6.7058511
14.870917 1.9420838 6.6996903
15.090374 1.9374523 6.6908946
15.290756 1.9263667 6.6932797
15.504401 1.9461378 6.7073998
15.687912 1.9408139 6.6848044
15.906761 1.9421369 6.6944842
16.071215 1.9631674 6.7046356
16.283459 1.9719574 6.6638455
18.543423 1.9166739 6.7373967
18.711653 1.9056839 6.6667514
18.892143 1.8974622 6.7213507
19.108471 1.8951337 6.7109857
19.317728 1.9049311 6.701704
19.475187 1.8849919 6.6619363
19.715822 1.894811 6.6764088
19.903345 1.8962051 6.7001152
20.086832 1.8850275 6.712862
20.280064 1.8984022 6.6721449
20.488699 1.8711498 6.7234721
20.706501 1.8756595 6.699954
20.933416 1.8959372 6.7240701
21.130995 1.8847479 6.7393465
21.283068 1.9015331 6.7712822
23.540562 1.8913958 6.697062
23.71736 1.8474854 6.6952662
23.939201 1.8704846 6.700551
24.100742 1.8350419 6.7210975
24.313581 1.8445396 6.6764679
24.50976 1.8277938 6.7155709
24.707449 1.8324959 6.7323713
24.857838 1.8372142 6.7166247
25.111492 1.84759 6.7209492
25.33309 1.834758 6.7581706
25.500525 1.81567 6.6785865
25.687313 1.8367121 6.6584997
4.1913381 2.1136732 6.6820221
4.2888875 2.1025219 6.734601
4.5398622 2.109174 6.6976962
4.7208085 2.1007872 6.7204614
4.9125834 2.1226747 6.7115664
14.451485 2.0597348 6.7132053
14.643679 2.0241632 6.6685591
14.907969 2.011157 6.7511768
15.00478 2.0124254 6.6038561
15.345087 2.00738 6.6620388
15.719013 2.0074029 6.7331963
15.902906 2.0029249 6.7623644
16.140987 2.08727 6.7109976
16.279627 2.0250895 6.7030826
16.467058 2.0335598 6.7019591
16.954435 2.1288497 6.732007
17.082993 2.0507972 6.7092381
17.37027 2.0671122 6.7684312
18.523577 2.077143 6.6980429
23.544201 2.0893443 6.6828876
4.1761327 2.3309789 6.6841025
4.2234716 2.3017707 6.6287274
4.9698358 2.2711303 6.6956215
5.0448074 2.3411529 6.7278423
14.503708 2.2895775 6.7306805
18.567389 2.3061638 6.7360249
23.565979 2.2597456 6.7328563
23.723257 2.3401723 6.7201166
4.1692224 2.5223773 6.7018094
4.2212443 2.4701672 6.6600094
4.8043075 2.5909305 6.670754
5.0198894 2.4906425 6.6518598
14.570945 2.4864843 6.6919632
14.62708 2.5169218 6.7102213
18.588072 2.4191256 6.6124964
18.729452 2.4866934 6.7073178
23.828384 2.4615724 6.7663879
4.1773648 2.7060313 6.7420845
4.2043281 2.7103872 6.7972355
4.7673149 2.6828814 6.663651
4.9480076 2.6742711 6.6940012
5.0272374 2.7014189 6.7568583
14.593973 2.6129558 6.6443748
14.68308 2.6955445 6.6919494
19.019674 2.6815968 6.6595597
4.1793885 2.8926482 6.6875672
4.7153378 2.8738277 6.6888351
14.686979 2.8914006 6.7023396
24.686289 2.9275482 6.7286716
4.1797409 3.0561724 6.6678176
4.222538 3.0858827 6.6240406
4.7588644 3.1020436 6.7425756
14.676875 3.1035528 6.6939049
4.1833739 3.277164 6.6985464
4.7268634 3.293268 6.6952906
14.59435 3.3298268 6.7888489
14.685133 3.3103468 6.6842017
4.1903639 3.4672408 6.7495003
4.7472696 3.4938507 6.7222376
4.9063597 3.5433154 6.7163992
14.689318 3.5287426 6.6953754
4.1914558 3.6760266 6.6747508
4.2000618 3.6359527 6.6818895
4.7473469 3.681639 6.705584
14.691084 3.6737828 6.6822619
4.1877179 3.8910706 6.6998663
4.2023759 3.9313595 6.7610102
4.7684731 3.8697586 6.648551
4.8819447 3.8585052 6.6420178
14.697813 3.9088855 6.6766772
4.1939974 4.0981731 6.7201419
4.2024598 4.1670375 6.6981597
4.7741065 4.0432749 6.6920047
14.700536 4.1054058 6.7088952
-8.5668755 4.2686272 6.799273
4.1910391 4.283957 6.6609282
4.2039552 4.3055072 6.6947775
4.7618346 4.2701283 6.6872897
14.703853 4.2915411 6.7111864
4.197125 4.4677448 6.7451105
4.2087688 4.5110354 6.6626105
4.7606196 4.4841847 6.7260098
14.695783 4.4825921 6.7110968
4.1999187 4.620944 6.6536164
4.2063999 4.6875982 6.6511354
4.7712169 4.6484356 6.6824813
14.708227 4.7148604 6.66959
4.1986933 4.996666 6.6300907
4.2126818 4.8560801 6.7586303
4.772131 4.8778057 6.7062435
4.806951 4.8388996 6.7722378
14.704907 4.8686886 6.7113905
4.2098536 5.0599594 6.6808276
4.7909813 5.1399312 6.7039437
4.8067141 5.0807238 6.7441292
14.700918 5.0673599 6.6833467
4.2156372 5.2934604 6.6752863
14.711132 5.2987638 6.6961145
4.2147112 5.5384879 6.7234735
4.7796111 5.5011821 6.6812682
14.715286 5.4832573 6.6957355
4.1998997 5.6994038 6.6657715
4.2128906 5.704978 6.6967907
14.713997 5.7003236 6.7043881
4.2206173 5.8898907 6.7366862
14.477888 5.9242692 6.7212996
14.657907 5.8660355 6.6972589
4.2212334 6.1411314 6.7454424
4.7793207 6.1970472 6.6950512
14.549459 6.0680709 6.7156892
14.624431 6.0970316 6.6368804
4.2190008 6.3043804 6.6509199
5.7242808 6.332077 6.6190205
5.9219995 6.3600354 6.6408148
14.329897 6.3127394 6.789897
14.57988 6.2117009 6.7532988
14.692636 6.3055239 6.7153373
-5.6229033 6.5672636 6.7187676
-5.5992899 6.5434155 6.7033305
4.2241263 6.5215945 6.743001
4.7883377 6.4985886 6.7129774
6.0447617 6.4530878 6.7047157
14.76125 6.500741 6.6925101
4.2251205 6.6450634 6.6898756
14.757422 6.7006359 6.6919665
-6.2287855 6.8869476 6.6847458
-6.1845083 6.9517579 6.7108641
-5.8377919 6.8302226 6.6818938
-5.5904284 6.8059916 6.6707926
4.2292786 6.8947382 6.704968
6.2015285 6.8778629 6.652029
14.759438 6.9019279 6.7175436
-6.2066679 7.0691752 6.6850123
-6.1290841 7.0554981 6.686152
4.2324023 7.1196547 6.691246
14.766383 7.1139746 6.6963677
4.2322054 7.248868 6.7089119
6.0572724 7.3223267 6.6667686
14.769668 7.3238797 6.7127213
14.830175 7.2646084 6.7356615
4.2373724 7.5036201 6.7330918
5.9725041 7.4995751 6.7015624
6.10642 7.4643612 6.7463312
14.766848 7.5338802 6.6993976
14.817352 7.5454917 6.7744865
4.2382107 7.6629438 6.6866312
5.3096137 7.7412157 6.6829948
5.9654799 7.6630363 6.6829596
6.0142813 7.6284924 6.7293959
13.976938 7.7657857 6.6657143
14.105921 7.7670898 6.7003107
14.314394 7.7827773 6.653194
14.77828 7.7135391 6.6760097
14.857918 7.7318907 6.7582431
4.2488174 7.9573174 6.7279587
4.8441792 7.9325027 6.7350111
5.2905083 7.9044676 6.6128197
5.9795103 7.8937178 6.686779
7.5519161 7.986228 6.7361412
7.6984739 7.9895325 6.7111502
7.9028182 7.9767632 6.705966
13.942584 7.8977785 6.6850777
14.070232 7.811564 6.683167
14.310237 7.8110552 6.7470646
14.539413 7.8798189 6.6851254
14.737312 7.9076838 6.6745658
4.2502718 8.0837746 6.680541
4.8852105 8.1504383 6.6643887
5.151648 8.1803312 6.6597672
5.2486701 8.1347275 6.6547694
5.9766521 8.0082283 6.7274199
6.0240016 8.122613 6.6674128
7.5088844 8.1180677 6.7658591
7.6862397 8.1097355 6.7018127
7.9139423 8.0848846 6.7261391
8.0316153 8.0770512 6.7795844
8.5869045 8.1581526 6.7393565
8.7079163 8.1118755 6.727118
8.9062939 8.1053495 6.6900239
9.1039448 8.112627 6.6810703
9.2938509 8.1176491 6.680963
9.494915 8.1298275 6.6913066
9.711278 8.1476202 6.705358
9.8941431 8.1266193 6.7110171
10.100749 8.090601 6.6771121
10.283621 8.0880747 6.6817026
10.460927 8.090312 6.6942835
10.680829 8.0892992 6.7375464
10.903985 8.0763655 6.7098131
11.066015 8.1117229 6.6941237
11.729136 8.156105 6.7845149
13.568069 8.1460609 6.792573
13.671259 8.0513296 6.7175841
13.875857 8.037034 6.699625
14.739256 8.0170631 6.6891432
14.830709 8.0124884 6.6494579
4.2569618 8.3257799 6.7513652
4.9048686 8.2177038 6.6984649
5.0599833 8.2294588 6.7276759
6.0842681 8.2861176 6.7028995
6.3032136 8.347373 6.7078376
6.4981585 8.3400269 6.7157845
6.7079864 8.3405685 6.6774673
6.8966603 8.3490067 6.6815734
7.1442151 8.3447008 6.7238259
7.2814713 8.3435364 6.6985769
7.5166669 8.3331251 6.7261243
7.742363 8.290452 6.7053709
7.9223275 8.2874699 6.7344894
8.1045265 8.335618 6.6741166
8.2914791 8.3303041 6.6835904
8.5058632 8.2754602 6.6869178
11.165414 8.2307835 6.7115812
11.338124 8.2581348 6.6754704
11.515887 8.284112 6.7115107
11.709513 8.2999668 6.7229543
11.918031 8.2828541 6.6993742
12.095824 8.2633371 6.6867628
12.290669 8.2885799 6.6861687
12.50234 8.2867165 6.7286453
12.681499 8.2611074 6.6791406
12.913315 8.2602777 6.6713834
13.121582 8.2546072 6.7065067
13.265605 8.2525711 6.7245865
13.464448 8.2462492 6.701839
4.2649751 8.4610205 6.672339
12.138293 8.5778742 6.6664033
4.2596412 8.7184753 6.747529
-5.651515 8.8396263 6.6149616
4.2662568 8.8738098 6.6595225
-6.9317575 9.0937223 6.6780286
4.2622094 9.1285543 6.7583055
-6.817347 9.2768955 6.7191186
-6.2638502 9.2250795 6.7463918
3.9369724 9.2749853 6.7024398
4.0951605 9.2792683 6.7116585
4.2618327 9.2571459 6.6217384
-6.7411685 9.4755936 6.6985726
-6.5425248 9.4614544 6.7899914
3.2976406 9.5356598 6.6655121
3.7890749 9.5052738 6.6504011
3.8704247 9.5313101 6.6920428
4.035337 9.5696335 6.6959815
4.2701073 9.4901924 6.7438197
-6.6945381 9.6657476 6.6942406
3.3396144 9.6801586 6.6620522
3.5112658 9.7287521 6.6739426
3.7099724 9.7186222 6.7003136
3.9152541 9.6955976 6.7012897
-6.5782547 9.8201838 6.7585745
3.4915683 9.8599997 6.6891527
3.67242 9.8635139 6.7067237
3.3511114 10.008154 6.7245879
4.3060656 12.045287 6.6554213
4.3163319 12.544928 6.7320175
4.311718 12.62569 6.6441383
4.3288698 13.138157 6.7690229
4.348877 14.260316 6.7398443
-11.968268 -12.065536 6.9993482
-12.246292 -11.882082 6.8950968
-12.119374 -11.991277 6.9675865
-12.261992 -11.698651 6.8215642
-12.179729 -11.748804 6.9318128
-12.152225 -11.545055 6.9128866
-12.310798 -11.309528 6.8646002
-12.126873 -11.366709 6.9935389
-12.516117 -11.082389 6.889667
-12.373957 -11.133372 6.9136686
-12.159672 -11.188673 6.9092617
-12.805968 -10.846237 6.8203845
-12.643705 -10.910056 6.8484297
-12.58354 -10.905419 6.8114128
-12.115713 -10.898327 6.9502182
-12.978491 -10.745449 6.8080096
-12.635826 -10.762493 6.9452376
-12.357031 -10.77012 6.9163427
-12.731567 -10.503833 6.8954525
-12.8854 -10.359157 6.9705901
13.907552 -9.8651953 6.9008241
14.014235 -9.8838625 6.8388748
13.767528 -9.7034721 6.9127884
13.920534 -9.6725922 6.9075217
14.023051 -9.7181654 6.9581347
13.786024 -9.4343519 6.8531322
13.857065 -9.5263147 6.8649969
-11.995335 -9.3143139 6.9648833
13.714766 -9.3251791 6.8796611
13.270046 -8.8462563 6.8552208
13.570619 -8.9035902 6.8939619
23.864422 -8.9096737 6.8234673
24.270199 -8.9129057 6.9922123
13.172277 -8.6906595 6.8029556
13.206672 -8.772006 6.8043604
13.96976 -8.6608181 6.9696913
14.073011 -8.6678553 6.8713584
23.903158 -8.7017641 6.8642178
24.053162 -8.6553402 6.9236236
12.041845 -8.4209633 6.9425368
13.19523 -8.5756197 6.8116374
13.972734 -8.4970474 6.9535713
14.132255 -8.5177526 6.894732
23.751705 -8.4876862 6.825141
23.893013 -8.4935493 6.9124117
24.107344 -8.4633293 6.927887
24.255316 -8.4803829 6.9063559
11.928818 -8.30441 6.983705
12.107024 -8.290019 6.9109421
12.213055 -8.2765789 6.8859806
12.994288 -8.2166328 6.8903923
13.079217 -8.217556 6.8657603
13.30471 -8.3686123 6.987319
13.52013 -8.2480907 6.8407421
13.725838 -8.2977581 6.8843408
13.878523 -8.3207722 6.880578
14.093127 -8.2917709 6.9151893
14.240595 -8.35606 6.8984809
23.799265 -8.3413563 6.938333
24.126606 -8.2748804 6.9161181
24.264599 -8.2796993 6.8868446
11.785885 -8.0722752 6.8149004
11.939572 -8.0708485 6.9628177
12.10925 -8.0694466 6.9130731
12.28092 -8.1174021 6.9091268
12.4505 -8.1183481 6.8696203
12.871733 -8.0943375 6.8746295
13.095827 -8.0874329 6.8490767
13.307876 -8.1049299 6.8534331
13.523535 -8.0532322 6.8393745
13.66582 -8.107214 6.8783927
13.913707 -8.1068916 6.9463487
14.079005 -8.0746489 6.9188142
14.238681 -8.1236515 6.9057498
14.490959 -8.0111713 6.8568635
15.385187 -8.055316 6.893754
15.525398 -8.0710793 6.826817
15.613806 -8.1209526 6.8438005
23.873589 -8.1130142 6.9687653
24.065784 -8.1077662 6.8863478
24.27387 -8.1261959 6.9312563
11.777317 -7.8879914 6.9700184
11.953312 -7.8765502 6.8761859
12.124618 -7.87222 6.915349
12.23733 -7.8425741 6.8841233
12.404922 -7.9955883 6.8831615
12.765509 -7.8789268 6.8402047
12.856377 -7.9077892 6.8533554
13.097071 -7.8693075 6.8923292
13.551582 -7.9488845 6.8139524
13.71452 -7.9184699 6.9152169
13.910706 -7.8694048 6.847609
14.098333 -7.9020805 6.9029484
14.275133 -7.8768463 6.9298296
14.506804 -7.9093156 6.921298
14.658064 -7.8870611 6.9201751
14.80953 -7.8391681 6.862062
24.107725 -7.8878412 6.8897238
11.732531 -7.703259 6.9332747
11.930697 -7.6704822 6.8937392
12.13865 -7.6872988 6.8536267
12.248801 -7.7318139 6.871213
12.466652 -7.6895971 6.8199859
12.769102 -7.7025299 6.8440981
12.876772 -7.6916189 6.8527451
13.334787 -7.6508217 6.8912249
13.494677 -7.7133541 6.8890271
13.671441 -7.7269993 6.8987336
13.893675 -7.714025 6.8865018
14.094446 -7.653707 6.921773
14.317128 -7.7211599 6.8810544
14.497129 -7.73944 6.920958
14.683502 -7.6582727 6.8857317
14.894848 -7.6699834 6.9191275
15.076574 -7.6937246 6.8992491
15.308529 -7.7078648 6.9178114
15.443097 -7.6562819 6.9135242
23.92585 -7.666935 6.9574194
24.100773 -7.6932917 6.9077778
24.209175 -7.7172642 6.9541407
11.736747 -7.4958382 6.8857498
11.918687 -7.5118427 6.9049468
12.090411 -7.4957099 6.886436
12.257196 -7.5037723 6.8335505
12.700033 -7.5463781 6.885778
12.841946 -7.4633331 6.8023987
13.117976 -7.4795775 6.8960757
13.246536 -7.5137978 6.967906
13.456866 -7.5171218 6.8648419
13.717044 -7.5267711 6.9312396
13.903433 -7.4970045 6.8818264
14.097054 -7.5019817 6.8910913
14.308461 -7.5082922 6.9000096
14.508657 -7.5210023 6.9006944
14.687716 -7.4925709 6.9104958
14.909707 -7.5140386 6.9021688
15.114665 -7.5127349 6.8775239
15.297422 -7.5006638 6.9086666
15.478392 -7.4645333 6.9027905
15.61553 -7.5096264 6.9566269
23.882677 -7.5323143 6.9049177
24.086544 -7.5016165 6.9692211
-9.6262159 -7.2788777 6.9602399
11.739331 -7.3597121 6.9192309
11.955636 -7.2753773 6.9075055
12.098019 -7.3009949 6.9038386
12.333502 -7.2565289 6.9065447
12.475991 -7.2876129 6.8969975
12.665012 -7.3244772 6.8609772
12.949206 -7.2825699 6.8780832
13.101283 -7.2810001 6.9039969
13.316469 -7.3456354 6.9070463
13.460073 -7.3509979 6.9529486
13.936882 -7.3227243 6.8547244
14.157761 -7.2637954 6.9137673
14.295814 -7.2995491 6.9073734
14.510549 -7.372077 6.8937387
14.715824 -7.3391819 6.9537683
14.929231 -7.396039 6.8459549
15.15199 -7.330482 6.8782439
15.293694 -7.2993326 6.9018388
15.522271 -7.2851381 6.871583
15.606559 -7.2335458 6.9801574
17.138397 -7.2132325 6.87571
17.332502 -7.3074636 6.9649978
23.888807 -7.3048754 6.9070802
24.04318 -7.3089437 6.9280024
-9.6438532 -7.1133261 6.9101806
-9.5621119 -7.081893 6.9146628
11.8792 -7.1387453 6.9496164
12.121398 -7.0979686 6.8811288
12.288222 -7.0869498 6.8700609
12.496042 -7.0784912 6.8367486
12.739715 -7.0473843 6.8440866
12.882865 -7.0980763 6.9163857
13.11681 -7.0792398 6.9017401
13.315596 -7.0719833 6.9362335
13.423525 -7.109992 6.9508052
14.19066 -7.1493578 6.9270744
14.268665 -7.1250224 6.8773627
15.180046 -7.1881084 6.8080111
15.308434 -7.0815187 6.8399048
15.472529 -7.1064816 6.9122553
15.679024 -7.0397835 6.9202447
16.981722 -7.0626574 6.8111653
17.136129 -7.0584154 6.917891
17.276917 -7.0842862 6.888402
17.412861 -7.1332817 6.9526782
23.955692 -7.166235 6.8934913
24.070768 -7.0640416 6.9178753
-9.6562605 -6.9470053 6.8585248
12.190746 -6.9225082 6.9619865
12.30226 -6.8746362 6.8879623
12.489552 -6.8933711 6.91361
12.702174 -6.9105964 6.892921
12.902631 -6.9391007 6.875627
13.060338 -6.8944864 6.9400744
13.265461 -6.9246321 6.9438152
13.544748 -6.9925857 6.8784866
13.884775 -6.8785114 6.980278
14.057682 -6.9280691 6.9951124
15.199009 -6.8576078 6.8042474
15.303172 -6.9069672 6.9132209
15.493281 -6.8878589 6.9106188
15.720696 -6.9108124 6.9333296
16.306587 -6.9182515 6.8155665
16.501835 -6.8351579 6.909493
16.77371 -6.8468313 6.8503218
16.895666 -6.9078641 6.8791399
17.079193 -6.8764811 6.8985324
17.23411 -6.9547777 6.9128923
17.429287 -6.9933524 6.8029861
23.349726 -6.8638768 6.9036808
23.790922 -6.9208007 6.9164119
23.939009 -6.9212346 6.8604422
24.100325 -6.9047232 6.8798752
24.267557 -6.8800445 6.908854
-9.5082779 -6.7243299 6.9957118
-9.0856276 -6.6115074 6.8858094
12.176788 -6.7388372 6.9864645
12.343569 -6.7398295 6.9321318
12.510175 -6.7112098 6.8953338
12.678473 -6.7027626 6.8855224
12.839258 -6.7525439 6.932601
13.089113 -6.6635518 6.9540596
13.27339 -6.7297816 6.9452653
13.867441 -6.7055454 6.9674292
14.699537 -6.7159119 6.8909798
14.850687 -6.7406878 6.954309
15.019891 -6.7549863 6.9436278
15.379573 -6.6844611 6.8278928
15.471347 -6.6898713 6.8930421
15.686384 -6.7172875 6.8885636
16.283171 -6.7005239 6.8511901
16.474564 -6.7134256 6.8902946
16.687958 -6.6716628 6.9118176
16.881979 -6.6736016 6.8462768
17.121679 -6.7487097 6.8752966
17.221523 -6.6872416 6.8088055
23.099648 -6.6225796 6.888216
23.426762 -6.6306973 6.9261522
23.714878 -6.7698264 6.9567146
24.118505 -6.7576041 6.8714519
24.29011 -6.7006717 6.8996367
24.521963 -6.62925 6.9540997
-9.271822 -6.4805365 6.8514152
-9.0903616 -6.4830027 6.8450651
12.680323 -6.5692492 6.9371719
12.928935 -6.471827 6.9583979
13.157944 -6.4360037 6.9658928
13.299576 -6.4649091 6.9942188
13.978683 -6.4429159 6.968699
14.070747 -6.437274 6.9808927
14.735282 -6.5171647 6.8926225
14.877918 -6.4889007 6.9932241
15.140713 -6.4540424 6.8536959
15.285164 -6.4666204 6.8813472
15.494333 -6.4872789 6.8257532
15.883476 -6.4833117 6.8207359
16.125271 -6.471427 6.8790312
16.321775 -6.4572182 6.8737283
16.531853 -6.5385661 6.9202595
16.702547 -6.4854159 6.8984947
16.819712 -6.4183559 6.8211427
18.303993 -6.4743042 6.939405
23.123585 -6.4509749 6.9174147
23.260658 -6.4666643 6.955761
23.525089 -6.4876938 6.9298797
23.716351 -6.5090322 6.9423103
23.858898 -6.5479355 6.9488044
24.086935 -6.5111427 6.8352695
24.332979 -6.5128794 6.8815875
24.42444 -6.4500799 6.8280344
26.332056 -6.5426707 6.9882169
-9.2719097 -6.2720394 6.964746
-9.1138992 -6.2692885 6.8828349
12.935737 -6.2462635 6.9797125
13.140465 -6.3780117 6.971365
14.149049 -6.3533931 6.9723797
14.629835 -6.3983755 6.9131937
15.361774 -6.3442082 6.8715544
15.741344 -6.3584518 6.8862057
15.913985 -6.3032799 6.8593993
16.137335 -6.2813702 6.9197383
16.275921 -6.2998314 6.9096613
16.518028 -6.2770276 6.9084191
16.703636 -6.3077164 6.8788161
16.898319 -6.3540006 6.8846898
17.665607 -6.241436 6.9371204
17.862133 -6.2407703 6.9580793
18.145752 -6.2543983 6.8942327
18.38434 -6.3072224 6.9618731
23.18017 -6.3233771 6.9005299
23.320217 -6.3089857 6.9378147
23.49843 -6.3111191 6.9384251
23.695171 -6.3152041 6.8197503
23.938507 -6.333837 6.843915
26.327341 -6.2715364 6.8362799
-9.1765079 -6.1493912 6.9736905
15.667403 -6.1168156 6.8313112
15.891026 -6.0874891 6.8975682
16.063705 -6.09374 6.8964491
16.305113 -6.1051941 6.9014177
16.519693 -6.0936837 6.9362626
16.659302 -6.1341934 6.8937221
17.558372 -6.0515289 6.9576712
17.734617 -6.0814776 6.9751263
17.902704 -6.1184735 6.9310951
18.103674 -6.076932 6.8930907
18.20491 -6.1384258 6.9570336
23.188786 -6.1176324 6.8846912
23.297054 -6.0814795 6.8899474
23.540604 -6.1084189 6.8658051
23.703131 -6.0884504 6.8708363
-8.6883984 -5.8319874 6.8947973
-8.5729332 -5.8644366 6.8895636
-8.3291063 -5.8990097 6.8662276
13.392857 -5.8429537 6.8820982
13.494293 -5.8747616 6.9862685
15.747409 -5.9124203 6.8291826
15.825994 -5.8881931 6.9430342
16.1134 -5.8607912 6.9132185
16.33147 -5.9010816 6.911665
16.525675 -5.8946366 6.8894157
16.742916 -5.9728665 6.9999375
17.511612 -5.9174843 6.9367523
17.69101 -5.9001193 6.9338732
17.939802 -5.8866572 6.9380736
18.088282 -5.884213 6.915967
18.240257 -5.9001198 6.9548407
23.148771 -5.9259577 6.939508
23.296509 -5.8857908 6.8919845
23.53891 -5.8913631 6.9062376
23.638527 -5.9180007 6.8704615
-8.8225431 -5.6692805 6.8226924
-8.6363773 -5.7288442 6.8806181
-8.518919 -5.7143226 6.812952
-8.3811531 -5.758677 6.8342485
13.390407 -5.693378 6.8795891
13.489952 -5.6802936 6.9291224
15.591581 -5.6964912 6.8050947
15.755558 -5.7379766 6.9988565
15.971588 -5.7230949 6.8960991
16.072683 -5.7943516 6.9818249
16.272951 -5.7887607 6.8620224
17.624561 -5.7147632 6.9339008
17.961823 -5.7581549 6.9181833
18.162479 -5.6983466 6.8424582
18.24118 -5.6773405 6.9959092
23.136608 -5.6935167 6.8849792
23.279003 -5.7125196 6.9262729
23.516268 -5.7371697 6.8662543
-9.5111732 -5.4856062 6.8365026
-9.2763557 -5.4762154 6.8079548
-9.0600281 -5.4493432 6.8604469
-8.877634 -5.4853754 6.8571711
-8.6891336 -5.4951615 6.9144502
-8.502203 -5.5042419 6.91012
-8.3996525 -5.5455999 6.9854088
13.341658 -5.5069962 6.8674984
13.485821 -5.4940467 6.9186697
23.170254 -5.5539403 6.9683394
23.286802 -5.4853821 6.8743982
23.470076 -5.4809027 6.9055781
-10.722748 -5.2109098 6.8228712
-9.7073936 -5.2893696 6.893981
-9.4177666 -5.2126389 6.9772377
-9.0963812 -5.3085952 6.8677993
-8.8099804 -5.2987032 6.9630709
-8.7530994 -5.3601565 6.8305917
-8.4904099 -5.3729038 6.9718728
13.332716 -5.293972 6.9280171
13.421822 -5.3286133 6.9484081
16.66798 -5.334425 6.8063545
23.171576 -5.3119535 6.9347792
23.270199 -5.2970514 6.8783736
23.487644 -5.3011208 6.8806458
-9.0550928 -5.171134 6.8914809
13.158264 -5.1412096 6.9046855
13.27685 -5.1115532 6.9165974
23.304014 -5.0852375 6.8952084
23.484465 -5.0874696 6.8908134
23.670609 -5.0827875 6.8603034
-10.320826 -4.8285666 6.9863601
-10.024603 -4.9575377 6.8260536
13.144916 -4.8883057 6.8641334
13.280796 -4.9028583 6.8938055
23.509684 -4.9733772 6.928709
23.642088 -4.9250021 6.958003
23.810965 -4.9480743 6.997468
13.149727 -4.7289839 6.9415283
13.327894 -4.6908793 6.899559
13.489372 -4.7293272 6.9348974
13.633684 -4.6394405 6.9264793
13.105608 -4.5257993 6.8807621
13.311171 -4.5718799 6.9307055
13.510929 -4.4798312 6.8898182
13.644153 -4.5026755 6.9064918
13.531817 -4.3223581 6.8804541
13.683153 -4.2789502 6.9609489
13.476564 -4.1163325 6.8844342
13.628665 -4.0895481 6.9120765
-10.63797 -3.9326286 6.9961433
13.556819 -3.9207933 6.8484955
13.73458 -3.8999438 6.9200478
-11.072782 -3.6162071 6.8866858
-10.921034 -3.6218486 6.815372
13.554202 -3.7861993 6.9284763
13.730939 -3.6670079 6.9359002
13.887275 -3.6975727 6.8728728
14.090057 -3.6273832 6.9025316
14.25581 -3.6090324 6.9357772
13.745634 -3.5331225 6.8950052
13.848966 -3.5094261 6.9152675
14.098848 -3.5067482 6.8870168
14.285705 -3.5003622 6.8866172
14.549611 -3.4805975 6.945519
14.657546 -3.4472389 6.9084258
-11.053445 -3.2470901 6.9525347
-10.919132 -3.3990359 6.9516544
13.756659 -3.3237493 6.9316201
13.927525 -3.3547759 6.894311
14.14002 -3.2635031 6.8743176
14.290112 -3.31933 6.890316
14.428978 -3.3280218 6.9435582
14.665428 -3.2451553 6.87919
14.877292 -3.2666681 6.9130206
17.743887 -3.3465066 6.9705133
17.876213 -3.2926869 6.9311604
18.064041 -3.2647696 6.8634453
14.171494 -3.1893165 6.9113789
14.237038 -3.1722822 6.9079857
14.516678 -3.1555982 6.888536
14.693387 -3.079819 6.9295888
14.887924 -3.1101732 6.9087687
15.051313 -3.0785577 6.901073
15.214202 -3.1793673 6.9642811
17.744093 -3.0921779 6.9800272
17.876829 -3.1071005 6.9199762
18.148481 -3.1123099 6.9515038
18.257162 -3.1591594 6.859653
14.660652 -2.9823155 6.9474864
14.918847 -2.9270413 6.8903255
15.097541 -2.8873858 6.9329629
17.777275 -2.8867595 6.919889
17.929377 -2.9295537 6.8916588
18.118076 -2.9032669 6.8469563
18.263691 -2.8568258 6.920577
18.463387 -2.8328424 6.9062285
17.763388 -2.7829804 6.8977299
17.907972 -2.7526569 6.9078569
18.056717 -2.7272565 6.9427123
18.298147 -2.6841238 6.9165215
18.461506 -2.72103 6.8807707
18.311394 -2.4960155 6.8412981
18.488087 -2.466167 6.9214272
18.608866 -2.5203295 6.8157487
18.549036 -2.2936225 6.9168725
18.621468 -2.245636 6.8744287
18.558388 -2.1516662 6.9293289
-7.2598114 -1.3227909 6.9098444
-7.2820802 -1.0925348 6.9469848
-7.09197 -0.95368779 6.9532185
-7.2741337 -0.68737167 6.9529552
-7.1829319 -0.71279013 6.9663467
-6.6187162 -0.68710876 6.8537087
-6.5439596 -0.70611763 6.875989
-7.2878995 -0.5050534 6.866466
-7.0416303 -0.43460035 6.8063793
-6.8583326 -0.55490446 6.8539867
-6.7688951 -0.50378078 6.9021969
-7.1146646 -0.30208865 6.8468423
-6.8621235 -0.26412129 6.8782616
-6.7029886 -0.33457908 6.9062796
-6.5626936 -0.24999058 6.9187784
-7.1757045 -0.16861838 6.9084387
-6.9761028 -0.071305633 6.9347382
-6.7483311 -0.075235844 6.9400821
-6.8543816 0.17316842 6.8940458
-6.7848244 0.013134241 6.8563457
-7.2194467 0.25262189 6.9218674
-7.4413571 0.58124113 6.9334979
-7.5184789 0.74156666 6.9247203
18.768457 1.7893038 6.9712148
23.792009 1.7728734 6.8402367
23.89954 1.77302 6.9129782
24.087448 1.7922004 6.8932524
25.093639 1.7851045 6.8438311
25.328232 1.7923228 6.9327173
25.683615 1.7968377 6.8233237
26.420757 1.7714553 6.8691072
4.1002922 1.9643989 6.9233522
4.2906857 1.9653581 6.9345865
4.5143638 1.9624341 6.887651
4.7079453 1.9628558 6.873826
14.532163 1.9566545 6.8750434
14.695979 1.9535552 6.9224825
14.909097 1.9452695 6.9117637
15.122807 1.9389913 6.8996544
15.307022 1.9529297 6.8954773
15.501215 1.9409981 6.8984427
15.708864 1.9470046 6.8739676
15.91538 1.9330584 6.9324446
16.103817 1.9193387 6.9182081
16.293901 1.9551684 6.9028416
16.493195 1.9568282 6.8909492
16.685759 1.9406688 6.9050379
16.89267 1.9228606 6.9068656
17.05789 1.9506569 6.8666048
17.337669 1.9328877 6.9098091
17.511076 1.9231501 6.910356
17.730597 1.9324038 6.9175529
17.877672 1.953324 6.9098229
18.131229 1.9193376 6.9229345
18.282398 1.9380302 6.9151592
18.493519 1.9182601 6.8929043
18.684504 1.9000883 6.8794632
18.910622 1.9069459 6.9209518
19.1077 1.8913877 6.9352608
19.282415 1.8930933 6.9034781
19.493273 1.8779355 6.8957691
19.666914 1.9075775 6.8900728
19.885841 1.9052598 6.8993845
20.082773 1.8821954 6.906302
20.300657 1.8829384 6.8907013
20.495884 1.8956802 6.9105186
20.709677 1.8805466 6.8987746
20.916819 1.8721577 6.9321313
21.100567 1.8883681 6.9001546
21.301601 1.8747872 6.9030137
21.497366 1.8927774 6.9175901
21.686817 1.9428715 6.9436693
21.958895 1.9194517 6.9424381
22.102745 1.9092703 6.9490199
22.346235 1.9416544 6.9517541
22.431973 1.8903048 6.9527044
22.71611 1.9226742 6.9338884
22.908661 1.8946679 6.9594917
23.104725 1.9118265 6.9687376
23.34528 1.8878686 6.9275122
23.474302 1.8816472 6.8988514
23.697411 1.8490015 6.9007478
23.849678 1.8463806 6.9204893
24.094416 1.8659996 6.8885894
24.317579 1.8632579 6.9155178
24.509548 1.8482044 6.9327679
24.704309 1.8443971 6.9040351
24.912048 1.8151801 6.9258795
25.075924 1.8744299 6.8742046
25.221218 1.835623 6.8616781
25.530388 1.8214743 6.8445053
25.729897 1.8477007 6.8753576
26.091726 1.8093328 6.9148917
26.350752 1.8152072 6.9274879
4.1865082 2.1338973 6.9077663
4.3248463 2.0823421 6.9170737
4.4785862 2.0954647 6.8850126
4.6901402 2.1110539 6.9065986
4.9039912 2.1132908 6.9186707
5.0777693 2.1354952 6.9012003
14.395324 2.1261218 6.923811
14.449198 2.1279876 6.8738723
14.994381 2.0132847 6.9459848
15.180996 2.0184426 6.8120699
15.875069 2.0006742 6.917654
16.487127 2.0807729 6.9129353
16.70146 2.0612879 6.9102659
16.901752 2.0824621 6.9012613
17.105068 2.0952179 6.9064312
17.298403 2.069622 6.9106207
17.47624 2.0743701 6.9368205
17.67131 2.0724614 6.9194007
17.896847 2.0937314 6.9288445
18.079016 2.0760803 6.9510307
18.284939 2.0412817 6.8853831
18.508614 2.1144562 6.9087005
18.786638 2.0230987 6.9690838
21.727871 2.0290446 6.9360242
21.829269 2.0271478 6.9239769
22.704105 2.0423927 6.9408245
23.371223 2.0527892 6.9801712
23.516722 2.0597427 6.8652148
4.1703224 2.2909558 6.8403068
4.9498177 2.2710814 6.9065857
5.0346746 2.2624521 6.9240723
14.48455 2.3262973 6.9329991
17.714493 2.2332783 6.9543648
17.926218 2.2489676 6.9925785
18.537291 2.2804132 6.9172091
23.553375 2.2534442 6.8854842
4.1772652 2.4898148 6.8777704
4.9772186 2.4185975 6.9290328
5.0024676 2.460577 6.8939676
14.551173 2.4772975 6.9590373
14.661761 2.5299485 6.882381
18.529938 2.4569364 6.9523964
18.720331 2.4942601 6.8998404
18.838474 2.5401349 6.8767943
23.872309 2.4405327 6.9306417
4.176784 2.7146282 6.8545828
14.683284 2.7007601 6.9012771
18.889137 2.6233881 6.9485116
19.081718 2.7050741 6.9193988
19.283804 2.7895432 6.9691224
4.1812773 2.9230819 6.9325747
4.7796822 2.998735 6.852531
14.685337 2.8936803 6.8857427
4.1809359 3.1438131 6.8688879
4.2066317 3.1383948 6.8761983
4.7476196 3.1301086 6.8944945
14.568833 3.1830659 6.9036131
14.666121 3.0662611 6.8738403
4.184834 3.3623238 6.9253654
4.7347174 3.2598441 6.9179053
14.551625 3.3397369 6.898108
14.636143 3.3047082 6.8693848
4.1894693 3.5181313 6.9349017
4.7614646 3.4818897 6.8892956
4.9098845 3.5209064 6.8576288
14.514277 3.5266345 6.9458008
14.65269 3.5199206 6.8508716
4.1881766 3.670779 6.9099684
4.2055941 3.744091 6.8602324
4.7533069 3.6934745 6.8866725
14.540731 3.6965003 6.9687996
14.69083 3.7058313 6.8795352
4.1911883 3.8894415 6.9118567
4.2002831 3.9692473 6.8572779
4.7484422 3.9412887 6.8813453
4.8982677 3.8102777 6.8659239
14.698059 3.8877132 6.9045458
-8.6157379 4.1239858 6.8649898
4.1893892 4.144691 6.9587102
4.2050552 4.0937328 6.9240394
4.757597 4.097373 6.8226228
4.8092299 4.1610427 6.8552656
14.696644 4.0659633 6.9111257
4.1933575 4.3157091 6.8851972
4.2024627 4.311965 6.9073796
4.7625327 4.3209968 6.9336777
4.8041115 4.3859725 6.8357329
14.686878 4.2950139 6.8952408
-4.048923 4.4817848 6.973989
-3.9197922 4.5216212 6.954998
4.1958694 4.5494995 6.9278512
4.2027893 4.5244188 6.9501553
4.764308 4.4570308 6.8978882
14.686305 4.4683619 6.9191251
-4.0467167 4.6489267 6.899888
4.2095485 4.7424369 6.8627834
4.7626371 4.729579 6.9316797
4.804862 4.6053286 6.8013473
14.709917 4.6841898 6.8933578
4.2065978 4.9388967 6.9183612
4.7760749 4.9087577 6.8767991
14.699677 4.8896484 6.9132419
4.2137399 5.1036887 6.8552647
4.773809 5.0816832 6.9182997
4.8057208 5.0979462 6.9126291
14.704472 5.0664711 6.8786159
4.2181377 5.3103271 6.911366
4.7706327 5.2760444 6.9203787
14.709534 5.3003979 6.9190226
4.213922 5.4794564 6.8844123
14.715918 5.5008507 6.8803101
4.2160969 5.6898503 6.8822823
4.7768421 5.7653179 6.8146853
14.708425 5.7328577 6.896842
4.2194939 5.9286575 6.9440103
4.7934117 5.9274492 6.9434605
4.8080335 5.9462895 6.9786229
14.339502 5.9533477 6.9376407
14.523264 5.9011431 6.9255486
14.674485 5.8994889 6.9299941
4.1800547 6.1493807 6.8588943
4.2202015 6.0925837 6.8883109
4.7853537 6.1421633 6.8805676
14.395916 6.1303124 6.9470515
14.463286 6.0928078 6.8738708
-5.5976067 6.3995094 6.8453078
4.2233996 6.2926087 6.9363947
4.7887001 6.258111 6.9482465
4.8082466 6.2001147 6.937181
14.166783 6.2791376 6.9167562
14.308522 6.2954164 6.8776064
14.499508 6.2998347 6.9009008
14.614441 6.3221474 6.877655
-5.6159048 6.4780393 6.9236526
-5.5876131 6.5145559 6.9642134
4.1941347 6.4643717 6.901196
4.2228675 6.4587708 6.8851762
4.8159666 6.5074959 6.9770393
12.839385 6.5564384 6.9795985
14.28195 6.467525 6.9511032
14.446411 6.4767876 6.8924742
14.708065 6.5254602 6.871141
-6.1666765 6.7633219 6.9332113
-5.6124196 6.6843185 6.8348112
-5.5893269 6.6610627 6.8196645
4.2265162 6.7065692 6.8831124
4.7949481 6.7358694 6.926878
4.8380814 6.7309256 6.9498248
14.754842 6.7244897 6.9336653
14.800741 6.7073121 6.9174256
-6.1218123 6.9391551 6.8849349
4.2291985 6.9118996 6.9492579
5.804029 6.8700447 6.9654193
14.7718 6.933301 6.8984251
14.80694 6.9018197 6.9588218
-6.1056309 7.0624194 6.8752599
-5.9620786 7.0976415 6.9222794
4.2334509 7.0901642 6.8929567
4.8057928 7.0876207 6.9674001
14.766705 7.1136761 6.9383698
14.805265 7.1012125 6.9555349
4.2377453 7.3133826 6.8681502
14.769266 7.3007617 6.9350877
4.2446566 7.4814825 6.893856
4.8178296 7.448081 6.9957004
14.766039 7.5167508 6.8991375
4.2472 7.7744007 6.9143062
6.1821895 7.7402687 6.8653026
6.3148341 7.6745396 6.8554254
14.076819 7.7812195 6.8884373
14.329791 7.7762733 6.896605
14.415444 7.7694893 6.8154745
14.777809 7.7209711 6.9137864
14.809673 7.7629356 6.850122
4.2445412 7.8267131 6.8865318
6.0676928 7.8756628 6.919024
7.5176368 7.981678 6.8896742
7.7514157 7.9784751 6.9666858
7.9187703 7.9692955 6.9443359
13.921929 7.9154997 6.8898563
14.134804 7.8077908 6.8498278
14.348018 7.8081732 6.8974991
14.549691 7.8883977 6.8954701
14.739602 7.9064684 6.9140949
14.831566 7.9229641 6.8601027
4.2518616 8.1273699 6.9048939
4.898509 8.1419916 6.918438
5.1066875 8.1771364 6.8869162
5.2084513 8.1037893 6.8841629
6.024004 8.1556854 6.8897877
7.4650593 8.0997448 6.9142442
7.7055402 8.124753 6.9331608
7.9149952 8.1653662 6.9825621
8.0776682 8.0872364 6.9300075
8.5871601 8.1691093 6.8938131
8.722455 8.1071997 6.9375687
8.8764191 8.1067953 6.8598909
9.107439 8.1124563 6.877593
9.3296175 8.1112537 6.8854146
9.5075598 8.1116848 6.9159613
9.6955166 8.1071873 6.9204454
9.9243174 8.1059389 6.9126186
10.074277 8.1042919 6.9047556
10.288036 8.1034288 6.8971786
10.487032 8.1006851 6.9151754
10.719994 8.0935593 6.9150658
10.940001 8.0953293 6.931993
11.07417 8.1279764 6.882751
11.208272 8.1951561 6.8583364
11.53191 8.1199322 6.8283334
11.705024 8.1396017 6.8448844
11.846611 8.1701756 6.8660269
13.587284 8.1353016 6.8755779
13.720897 8.0538197 6.9168396
13.886179 8.0388165 6.9276524
14.772199 8.0140438 6.8701968
4.2549477 8.2469788 6.8863478
6.1122847 8.3075628 6.8932686
6.295445 8.3628569 6.8684773
6.4856081 8.3609228 6.9017658
6.6484327 8.3427439 6.9282846
6.9015245 8.3526316 6.9285026
7.1029449 8.350111 6.9277039
7.2857118 8.3440094 6.916954
7.4577966 8.3242083 6.8688674
7.8718319 8.2480574 6.9993467
8.1351986 8.3026171 6.8985252
8.3327599 8.3345718 6.8712997
8.5157709 8.2964621 6.8874941
11.191269 8.2110424 6.9914732
11.281499 8.2617006 6.8879075
11.461153 8.3261795 6.911335
11.68375 8.3627462 6.8641052
11.895433 8.3657627 6.9239321
12.083889 8.3116846 6.9123254
12.3024 8.2626476 6.9132371
12.473128 8.2716837 6.8865852
12.692962 8.2692642 6.9108772
12.89496 8.2944317 6.8931055
13.092313 8.2675838 6.9193048
13.279449 8.2863817 6.9018183
13.498985 8.2541838 6.9399629
13.616272 8.2501574 6.9020667
4.255547 8.5390453 6.917932
11.514981 8.4385338 6.8708334
11.675127 8.4822245 6.9075046
11.884837 8.5047054 6.9534802
12.060547 8.5110712 6.9298701
-5.5682964 8.7627335 6.8274894
4.2602234 8.667819 6.8875375
-5.4700761 8.8865604 6.8886781
4.2578444 8.9454365 6.9438815
-6.8811302 9.1583786 6.9261069
3.9432211 9.1962328 6.8242445
4.2640095 9.07201 6.9059839
-6.7489357 9.3261871 6.920217
3.981833 9.2389603 6.8999491
4.0182891 9.3132162 6.9511251
4.2694111 9.3492193 6.9288707
-6.6996231 9.476779 6.8842325
-6.4727564 9.4238224 6.8701944
-6.3075671 9.4819479 6.8590894
-6.1224623 9.5873327 6.9824905
3.8527231 9.5561218 6.8686714
4.00108 9.5849361 6.8203082
4.2657351 9.457242 6.9002643
-6.3486567 9.6079788 6.9553781
3.3163955 9.7023621 6.8839111
3.4935541 9.7697649 6.840807
3.7534359 9.7330542 6.8876214
3.9328969 9.6751328 6.9083953
4.0052624 9.7042074 6.868794
4.2580619 9.6302013 6.9729953
-6.5785522 9.8156528 6.8086901
3.5253234 9.8635845 6.9300795
3.7247083 9.8503637 6.8968105
3.8686862 9.8365612 6.9981894
4.060626 9.9293003 6.870533
3.2972765 10.070524 6.9568634
3.6780558 10.149803 6.9214954
3.3897698 10.590511 6.9249654
4.3000994 12.389633 6.9622102
4.3162355 12.475963 6.858377
4.3220859 13.07605 6.8691287
4.3127317 14.669016 6.9300852
-7.7111683 14.808969 6.8456168
-12.077663 -11.602394 7.0141034
-12.087969 -11.524002 7.074141
-11.968817 -11.428289 7.1241622
-11.733768 -11.430155 7.1119547
-12.08313 -11.261263 7.1185989
-11.768157 -11.348558 7.1276102
-11.533726 -11.373708 7.1123857
-12.311691 -11.060467 7.1513515
-12.130835 -11.117229 7.1101933
-12.455947 -10.851143 7.1118126
-12.27383 -10.914598 7.1766157
-12.051319 -10.930522 7.1552
-12.719601 -10.652098 7.0401192
-12.508527 -10.704081 7.0896196
-12.224699 -10.711689 7.0544925
-12.117904 -10.73851 7.0712776
-12.726572 -10.564392 7.0415964
-12.308901 -10.581034 7.0370274
-12.139783 -10.577573 7.1438274
-12.901294 -10.222378 7.0767822
-12.279311 -10.395877 7.0893812
-12.934437 -10.091336 7.1418486
-12.11651 -10.1434 7.1929841
-12.265003 -9.8544416 7.0781283
-12.102525 -9.8590641 7.1640592
13.50732 -9.9170065 7.1413889
13.662747 -9.8492947 7.099679
13.845149 -9.8396997 7.0907989
-12.084644 -9.7770796 7.1176538
13.676832 -9.7251062 7.1271152
13.850039 -9.7132902 7.0274439
14.050671 -9.7386818 7.0398231
13.75375 -9.4478378 7.1695995
13.851675 -9.5250244 7.0405731
13.82398 -9.2470999 7.1480613
-11.950232 -8.9418402 7.0540018
23.98498 -8.8150511 7.0250912
24.174145 -8.8173246 7.0805902
24.412727 -8.8312531 7.1940103
13.9742 -8.7610474 7.0920782
23.935371 -8.6581306 7.0824308
24.001404 -8.6400261 7.0190582
24.329771 -8.6654854 7.1004648
24.428055 -8.7201567 7.1987939
11.93098 -8.4118824 7.1745405
12.087944 -8.4418659 7.0834112
12.328689 -8.4191151 7.1033525
13.926353 -8.4929428 7.0686388
14.06322 -8.5146904 7.0764875
14.223227 -8.5912971 7.0383091
23.67964 -8.5692606 7.0917721
24.3745 -8.4782696 7.143507
24.491707 -8.4810362 7.0963821
24.613367 -8.4705172 7.1510649
-10.187184 -8.2163296 7.1133366
11.724823 -8.3038235 7.1361041
11.919943 -8.3345652 7.0690737
12.068244 -8.2779627 7.0955729
12.262453 -8.2825794 7.0624518
13.226717 -8.2994356 7.0276809
13.533677 -8.2707224 7.0282736
13.70619 -8.3032904 7.0978222
13.909533 -8.3115234 7.0450592
14.106135 -8.2937431 7.0572786
14.289534 -8.2598524 7.089427
23.677357 -8.3890038 7.0256243
24.260323 -8.3981838 7.0337496
-10.005757 -8.0833883 7.1266756
-9.6895027 -8.0148115 7.1568418
11.705646 -8.094183 7.147264
11.898478 -8.1072111 7.102798
12.117415 -8.1183815 7.080966
12.210169 -8.1726112 7.0625472
13.722982 -8.0106516 7.0024829
13.892285 -8.0930128 7.0650988
14.105927 -8.0950108 7.0851188
14.287351 -8.1000805 7.1052537
14.489697 -8.0230684 7.0336962
24.090824 -8.0922813 7.110971
24.26701 -8.1030588 7.0131292
-10.091652 -7.8769093 7.1456828
-9.8719664 -7.9048314 7.1735101
11.595367 -7.8463058 7.1068578
11.723822 -7.8986082 7.0781617
11.886295 -7.8928027 7.1322412
12.079623 -7.9131465 7.0736074
12.235052 -7.9348259 7.043498
13.710443 -7.8921657 7.0447712
13.898181 -7.8962402 7.0668354
14.087026 -7.9129639 7.1272168
14.304509 -7.9122014 7.0739503
14.503564 -7.9246998 7.076416
14.60058 -7.807569 7.0444136
24.092367 -7.8781576 7.0911727
24.277058 -7.91851 7.1415796
-9.9319563 -7.69734 7.08952
-9.7033949 -7.7132044 7.1130519
-9.5755806 -7.6459894 7.176609
11.534596 -7.6817803 7.1113992
11.726343 -7.7057796 7.0842867
11.900578 -7.6981721 7.1071281
12.043841 -7.7020917 7.0554276
12.948985 -7.6844726 7.0378017
13.026118 -7.7570724 7.0068769
13.540264 -7.6162567 7.0886526
13.685935 -7.6774545 7.0724082
13.850771 -7.715992 7.1056209
14.094718 -7.7056789 7.1100025
14.334021 -7.6959734 7.0976062
14.487462 -7.7048283 7.0932941
14.694023 -7.6868277 7.1298285
14.923182 -7.6653552 7.0706849
15.080547 -7.6486211 7.1042027
15.28904 -7.6455517 7.0777435
15.444159 -7.6826468 7.0488644
23.897472 -7.7646942 7.1811471
24.110289 -7.7151527 7.0983043
24.278866 -7.6308184 7.0729942
-10.115133 -7.4554691 7.1780219
-9.8383198 -7.4663653 7.1429577
-9.7049856 -7.5151534 7.0745788
-9.5484943 -7.5089903 7.0365968
11.352377 -7.4237957 7.1487699
11.527869 -7.4661112 7.0945654
11.717118 -7.4842458 7.1079235
11.880389 -7.5390229 7.0354357
12.084819 -7.4339771 7.1530762
13.334761 -7.5189223 7.0258274
13.535458 -7.5180755 7.0521979
13.73195 -7.5041618 7.0901031
13.901774 -7.4928737 7.0862846
14.110127 -7.462985 7.0779991
14.288339 -7.4914618 7.1005087
14.510916 -7.4796557 7.1228957
14.731833 -7.5101891 7.0936623
14.865233 -7.4417315 7.0903306
15.111163 -7.469892 7.0774589
15.266826 -7.4757719 7.1258154
15.510558 -7.5066895 7.1266537
15.675842 -7.4746437 7.1180887
15.848345 -7.5379195 7.1474614
23.694405 -7.5163016 7.0368757
23.971031 -7.4694076 7.1355681
24.175701 -7.5400238 7.0970736
24.341442 -7.5076971 7.1740808
-9.6339664 -7.2209139 7.0214796
-9.5439243 -7.3328624 7.06528
11.532866 -7.3256435 7.0992713
11.728346 -7.2711439 7.1047478
11.896238 -7.3035765 7.0766635
12.12372 -7.2822309 7.0885758
12.300275 -7.2843823 7.1928306
12.464697 -7.2075567 7.0407586
13.161039 -7.2456865 7.0326633
13.365936 -7.2582865 7.0468802
13.478559 -7.3348026 7.1264129
13.680506 -7.2355614 7.1032438
13.9214 -7.3057251 7.1146607
14.111076 -7.3168006 7.071228
14.290531 -7.3216019 7.1205935
14.492722 -7.3457642 7.0845871
14.72996 -7.3408122 7.0966296
14.915436 -7.2770357 7.153801
15.085227 -7.3698225 7.0897322
15.303761 -7.3118043 7.1015759
15.489996 -7.3011045 7.1008492
15.647291 -7.3483772 7.1107683
15.817703 -7.2019539 7.1102047
23.785805 -7.3781233 7.0039148
23.926296 -7.3137283 7.087956
24.086462 -7.3166533 7.1384926
24.350836 -7.3698444 7.1966314
-9.6696224 -7.1007099 7.1218104
-9.5426664 -7.1956749 7.0307827
11.73235 -7.1448245 7.0872521
11.880483 -7.0856504 7.0852041
12.110222 -7.0846877 7.0901132
12.277809 -7.1153975 7.0881424
12.406627 -7.0678768 7.1344585
12.900605 -7.0607381 7.0506115
13.132629 -7.0770807 7.0746861
13.311447 -7.1048417 7.0792527
13.547485 -7.089632 7.0769386
13.695747 -7.1231918 7.1780357
13.833376 -7.1194105 7.0337772
14.325571 -7.1522708 7.08078
14.778453 -7.1495295 7.1837764
14.860739 -7.0572729 7.1826301
15.158821 -7.1092186 7.1450262
15.306144 -7.0791583 7.1072664
15.503963 -7.076798 7.1274042
15.876789 -7.019845 7.0760803
16.02161 -7.0138464 7.1694231
17.284214 -7.1523237 7.013217
23.313272 -7.0347877 7.1970105
23.955727 -7.1073198 7.1081433
24.104961 -7.1177649 7.0865798
24.249126 -7.1723752 7.09903
-9.8375244 -6.8928246 7.1907287
-9.7722864 -6.8549914 7.0993156
-9.574873 -6.9137502 7.0165443
11.907827 -6.9698906 7.1120734
12.130958 -6.9225931 7.0675559
12.281413 -6.9130955 7.0883069
12.528597 -6.87427 7.0970564
12.737947 -6.8886671 7.0890779
12.927829 -6.9172764 7.0946598
13.113239 -6.8825703 7.1161141
13.277575 -6.9005251 7.0785151
13.47533 -6.8991656 7.100636
13.722884 -6.8402476 7.0938601
13.83758 -6.8063226 7.0682435
14.099517 -6.8733902 7.1019173
14.434628 -6.8327322 7.1809053
14.976982 -6.8714886 7.119874
15.140386 -6.8730025 7.112536
15.302471 -6.897419 7.1124392
15.481948 -6.9079227 7.1078463
15.672392 -6.978416 7.048233
15.856695 -6.9751167 7.1002059
16.720364 -6.8548584 7.0565367
17.130663 -6.9142094 7.0606308
22.891569 -6.821156 7.1819959
23.261101 -6.8928986 7.0771918
23.461975 -6.8358326 7.0583963
23.648254 -6.8505774 7.1592379
23.884808 -6.8678541 7.1217971
24.129711 -6.9026098 7.0262904
24.26232 -6.897903 7.105835
24.411549 -6.8989029 7.125896
-9.7414169 -6.7204351 7.0341072
-9.5976982 -6.7742076 7.1782117
12.170944 -6.6866331 7.1050677
12.322227 -6.7315965 7.0799694
12.497248 -6.6909781 7.0952692
12.665421 -6.7205386 7.086937
12.909657 -6.6995583 7.118
13.103841 -6.6825147 7.0996609
13.294368 -6.6645908 7.1008773
13.472548 -6.7027869 7.0888491
13.711493 -6.7089343 7.090982
13.857871 -6.6984329 7.0980997
14.137233 -6.7750425 7.0643096
14.794207 -6.6900377 7.0337968
14.902432 -6.6975646 7.1076741
15.115664 -6.7418289 7.0779228
15.296088 -6.7194662 7.0920615
15.475657 -6.7035298 7.0280757
16.560833 -6.7198458 7.0698347
16.649658 -6.6623225 7.0629358
16.848198 -6.7546611 7.0057526
22.729696 -6.7559919 7.1959486
22.941767 -6.7423749 7.1304965
23.060301 -6.6559863 7.099196
23.270985 -6.6388021 7.0732322
23.525671 -6.681118 7.1284924
23.696199 -6.7123656 7.0887856
23.888653 -6.6735821 7.037138
24.072912 -6.7347269 7.1063399
24.27425 -6.719605 7.0855017
-9.4534788 -6.5803356 7.0327263
-9.2994509 -6.4505043 7.1466999
12.191103 -6.597991 7.1106348
12.305287 -6.4950266 7.1058087
12.438721 -6.5705643 7.0743556
12.736224 -6.4607224 7.1021652
12.870323 -6.5232759 7.0497994
13.070442 -6.4589782 7.0915332
13.283584 -6.5280309 7.1028657
13.531097 -6.4909143 7.1076264
13.704875 -6.4809537 7.127615
13.902095 -6.4817634 7.0887747
14.067809 -6.4483452 7.0761957
14.22636 -6.4815822 7.1532106
14.454945 -6.4943714 7.1125417
14.706433 -6.5246553 7.0769172
14.871435 -6.5004139 7.1089158
15.118734 -6.5792508 7.0450554
15.403761 -6.5544748 7.0102797
16.292902 -6.4643207 7.0086527
16.48159 -6.5623245 7.0229759
16.641283 -6.5175037 7.0082741
18.429712 -6.5480127 7.1613879
22.709457 -6.4019103 7.0936637
22.965052 -6.440609 7.1565399
23.100925 -6.4927654 7.0899663
23.286369 -6.5098815 7.1138306
23.458975 -6.5286198 7.0595284
23.668898 -6.5615306 7.0479097
23.94556 -6.5016527 7.053545
12.727728 -6.3127985 7.1941309
12.90762 -6.3037839 7.0956206
13.118274 -6.2994828 7.1018806
13.267447 -6.3306227 7.1050673
13.499784 -6.2913899 7.0832767
13.711837 -6.2752452 7.1323829
13.908854 -6.3246012 7.1172776
14.081866 -6.3275437 7.1255732
14.238858 -6.3438506 7.1545539
14.80577 -6.3627949 7.0749989
16.116508 -6.3355565 7.0259628
16.338032 -6.3052077 7.0423369
16.498405 -6.2820458 7.0559139
16.679054 -6.2796135 7.013835
18.173847 -6.3010211 7.0374904
18.259886 -6.2676868 7.0639834
18.417248 -6.2450027 7.1828647
22.976109 -6.3243723 7.1060891
23.079016 -6.291873 7.0773487
23.293112 -6.3029113 7.0857544
23.551126 -6.3129258 7.0250897
26.419069 -6.3574867 7.0627208
-9.4521313 -6.1214151 7.1756458
-9.2542496 -6.0841789 7.0464096
-8.8436451 -6.0061498 7.0990477
12.90863 -6.1536713 7.1417847
13.115757 -6.1089354 7.1313515
13.288571 -6.1311331 7.0870295
13.51061 -6.0949268 7.1279731
13.694001 -6.1289387 7.1250319
13.945229 -6.1087623 7.1646166
14.076828 -6.0683727 7.123271
14.299362 -6.1048756 7.1418576
16.350771 -6.1538587 7.1439004
16.467545 -6.0654736 7.0651741
17.512115 -6.03688 7.0652785
17.665237 -6.1596451 7.1321292
17.921759 -6.118957 7.0535369
18.086393 -6.0830941 7.1045213
18.258142 -6.1005039 7.084784
18.422886 -6.1694546 7.1278577
23.095993 -6.1079893 7.0883493
23.32893 -6.0690379 7.0467529
-8.8502579 -5.9504533 7.1147137
12.964953 -5.9742446 7.1569519
13.319074 -5.896143 7.1342587
13.466546 -5.8446679 7.1212902
13.621899 -5.9975662 7.1284571
16.662556 -5.9703922 7.0077724
17.529892 -5.8600311 7.043437
17.695171 -5.8863978 7.0917854
17.908482 -5.9093938 7.0797777
18.122643 -5.907115 7.133358
18.261158 -5.9081907 7.0700769
22.962198 -5.9996157 7.1163774
23.134779 -5.8679619 7.0754008
23.25956 -5.8669958 7.108901
-8.5402889 -5.702342 7.0221744
-8.3256264 -5.6302848 7.0640869
13.383198 -5.6520538 7.1030722
13.466167 -5.6705413 7.0999002
13.653446 -5.6244307 7.0886297
15.856691 -5.7317791 7.0809245
16.208843 -5.7526197 7.0491571
17.659166 -5.7096853 7.1133385
18.050955 -5.7286911 7.0733938
18.222458 -5.7766638 7.0621066
23.080576 -5.6706977 7.1065736
23.314943 -5.6963801 7.0890608
-10.764725 -5.5032854 7.0573444
-10.088249 -5.5067143 7.0253229
-9.7653971 -5.40417 7.0726261
-9.5827398 -5.445817 7.1177745
-9.025053 -5.424222 7.0061326
-8.8323298 -5.4632378 7.0387206
-8.6916237 -5.5677896 7.0946918
-8.4367857 -5.5041151 7.0920258
-8.3893013 -5.5425115 7.0192327
13.318716 -5.4419436 7.068593
13.50337 -5.4868932 7.1266227
13.627653 -5.4997988 7.0917492
23.117336 -5.4934945 7.1142116
23.263653 -5.5008788 7.0926003
23.429573 -5.4569077 7.1556826
-9.3218346 -5.225347 7.1035595
-8.9141617 -5.2425103 7.1440754
-8.719326 -5.2484889 7.0895042
13.311002 -5.2805481 7.1261787
13.50119 -5.2883425 7.155376
16.869423 -5.2633476 7.0924129
23.113672 -5.3011332 7.1418972
23.296356 -5.268714 7.1092153
23.535732 -5.3157921 7.0138092
-10.770048 -5.1571541 7.127676
-10.119102 -5.101635 7.0865664
-9.891695 -5.1251135 7.151937
-9.3160076 -5.062921 7.1365805
-9.0641308 -5.0008063 7.1492567
-8.9536877 -5.1602831 7.0129862
-8.7604389 -5.1140571 7.0914521
13.307826 -5.0652323 7.0601311
13.472146 -5.1248994 7.1158633
13.668711 -5.1237221 7.1169243
13.949898 -5.0187044 7.1855721
23.191641 -5.1438494 7.0429592
23.271866 -5.1065159 7.0874195
23.487513 -5.0728517 7.045382
23.673872 -5.0511346 7.0940099
23.871115 -5.0291824 7.1058817
-11.029284 -4.9805684 7.105875
-10.210346 -4.8876214 7.0322104
-9.8082695 -4.9745507 7.0213237
-8.9715023 -4.8994083 7.0729423
13.189898 -4.852107 7.0860777
13.365753 -4.859416 7.0569086
13.464264 -4.9684 7.1010199
13.702748 -4.8699203 7.1279535
23.303009 -4.9300232 7.1111221
23.471169 -4.9498949 7.1715264
23.710648 -4.9283938 7.0814829
23.997871 -4.9448447 7.1174135
24.063456 -4.9044986 7.108561
-11.103733 -4.6392603 7.1054926
-10.993423 -4.7982068 7.0803342
-10.687582 -4.6135159 7.1754813
-9.2908735 -4.7773094 7.1710744
13.344891 -4.7194443 7.1074581
