1582
19.214884 1.1052473 3.2213569
19.722385 1.3242154 3.329067
20.747337 1.0146365 3.1800869
21.190519 1.0783275 3.3047595
24.913782 1.3609657 3.3786216
25.383877 1.1584923 3.2255771
25.590038 1.2075956 3.445976
26.308964 1.1834047 3.4581933
4.3142347 1.9495326 3.1904359
4.8039379 1.7726284 3.2401838
5.2562475 1.7675159 3.2610123
5.6578474 1.856079 3.2404461
10.490055 1.8813343 3.0241587
10.791449 1.798533 3.073477
11.243006 1.7069495 3.1674917
11.780873 1.6667358 3.1840994
12.256788 1.657552 3.2330394
12.76471 1.6998885 3.1675384
13.26375 1.761179 3.2668865
13.71287 1.6344252 3.285023
14.250204 1.713412 3.2725303
14.727073 1.7783927 3.2626925
15.280678 1.8115193 3.2266057
15.746273 1.8406912 3.2689757
16.255249 1.8276248 3.3068752
16.741585 1.82048 3.2879922
17.252602 1.8279119 3.3113222
17.757307 1.8128809 3.2894034
18.239258 1.8196424 3.2631853
18.731722 1.8139175 3.2992265
19.256506 1.8242129 3.2754929
19.753389 1.734287 3.2788754
20.21027 1.7748138 3.1864595
20.732721 1.8116903 3.2065866
21.269781 1.8049001 3.2211308
21.757284 1.8029537 3.2486227
22.227184 1.7909744 3.2523
22.730413 1.7782604 3.2539172
23.231546 1.8091955 3.2659132
23.69882 1.7921598 3.2558451
24.240007 1.7789345 3.200207
24.660339 1.7407305 3.2348945
25.386963 1.6865199 3.1920514
25.885761 1.7986066 3.1918015
26.458654 1.693305 3.3733835
26.669626 1.7824929 3.1559227
27.185411 1.7855587 3.0493011
4.2667484 2.1796143 3.2584536
4.6878867 2.0158539 3.2674396
5.243629 2.0120883 3.2177351
5.8528256 2.1228719 3.2368233
10.360683 2.3109868 3.0696073
10.734071 2.2727289 3.1691523
11.170921 2.3574102 3.3567159
11.72848 2.2428522 3.2694097
12.214814 2.0514646 3.0719237
12.72475 2.0470052 3.0961215
13.024879 2.0003653 3.075593
13.546282 2.3367219 3.0012841
17.788061 2.002655 3.0819376
18.020447 2.0322542 3.0441446
23.202656 2.0677173 3.2391212
23.525547 2.1187189 3.0498724
4.193007 2.7567301 3.2689104
10.324863 2.7223165 3.0970671
10.737919 2.7556386 3.2518013
11.140455 2.7007484 3.4332809
14.192638 2.7882214 3.0418591
14.663927 2.9377575 3.0175793
4.1959763 3.2647269 3.2658498
10.267908 3.2882197 3.102109
10.730831 3.2314153 3.2785661
11.093046 3.1420665 3.4484577
14.663733 3.2723014 3.1662841
4.2033496 3.758008 3.268635
5.5947123 3.9057517 3.4132724
10.317402 3.7522085 3.1265252
10.74094 3.5687337 3.2869911
14.680038 3.7611063 3.2376797
4.2061481 4.2740717 3.2655544
5.4211736 4.2507725 3.4578547
5.5699072 4.2676868 3.4245462
9.7521048 4.4365196 3.047905
10.178268 4.2924924 3.0665398
10.540406 4.2431936 3.1110773
14.684621 4.2506809 3.2584522
4.2084665 4.7505226 3.249094
5.5797005 4.7355795 3.4451616
7.8839774 4.917695 3.1212821
8.7975788 4.9162555 3.1579235
9.2807846 4.8943648 3.0972857
9.753582 4.7754374 3.186801
10.215886 4.8077059 3.2883835
10.568896 4.8961277 3.4131041
14.413256 4.8603911 3.464509
14.689058 4.7479296 3.2077165
4.2196188 5.2294641 3.2601249
5.4671755 5.0795774 3.4800305
5.735487 5.320272 3.3072839
6.1609163 5.4577408 3.095207
6.9280014 5.4924765 3.0385873
7.2920108 5.4097028 3.116611
7.7432556 5.3081937 3.1392968
8.1689596 5.177206 3.0579758
8.806035 5.0972762 3.145328
9.2317953 5.1563015 3.3522809
9.7578821 5.1221557 3.4217978
10.243085 5.091907 3.4124234
10.516019 5.0092778 3.4939189
11.071489 5.1411304 3.4423544
14.691626 5.2433114 3.2408452
4.2224107 5.7329493 3.2607112
4.7706976 5.9522047 3.386631
5.4826336 5.7546368 3.4480433
5.7085056 5.6692328 3.3858609
6.2960615 5.6641092 3.3131251
6.7664437 5.7339611 3.2657359
7.1814423 5.627883 3.3310757
7.6620417 5.6919875 3.3815892
8.1387444 5.8593922 3.3892581
14.331044 5.8719363 3.1902473
14.667419 5.7381363 3.2431889
4.2144866 6.2502608 3.3198545
4.7926941 6.2970786 3.3566866
5.4742947 6.0032797 3.4801023
5.5371361 6.0645995 3.4799268
6.4839878 6.1443815 3.4315171
6.5941458 6.0731544 3.4532111
8.0902948 6.031682 3.4364774
4.2164488 6.7244453 3.3991055
4.8068666 6.786438 3.2547119
5.0150275 6.9690847 3.3625569
4.2138252 7.2266555 3.411448
4.8253646 7.2510529 3.291698
4.2380266 7.6325903 3.4353542
4.8281312 7.7131457 3.2613714
-7.5367026 8.4579535 3.2745316
-7.4305077 8.4645624 3.0751143
4.8994937 8.0492573 3.2602556
5.1186237 8.0686464 3.4131658
-7.5221262 8.5305872 3.2030568
-7.4212461 8.7094355 3.2875369
-11.603533 -12.197437 3.8219328
-11.379344 -12.26552 3.9211063
-11.64804 -11.928991 3.9037974
-11.360846 -11.945496 3.9873986
25.16737 -11.026905 3.8727973
24.868355 -10.885009 3.9253421
25.093094 -10.793928 3.9428775
25.756664 -10.949183 3.7570376
-10.170805 -10.083982 3.6831493
-10.552562 -9.7744226 3.7617707
-10.336352 -9.7940035 3.7564223
-10.568201 -9.3216934 3.7165875
-10.388371 -9.2961054 3.8913434
-9.7013788 -9.1605148 3.8228588
25.62035 -9.0997334 3.8510315
-10.509439 -8.6130466 3.8657165
-10.151862 -8.7136431 3.665807
-9.6885977 -8.7234087 3.8150938
-9.3812418 -8.6438179 3.8216026
25.688644 -8.8672132 3.7616587
-10.545044 -8.2950745 3.893187
-10.243522 -8.3870535 3.8101051
-9.6940861 -8.3265839 3.8774412
-9.450882 -8.3438129 3.9207768
-9.66992 -7.9770947 3.9998455
17.058933 -7.5948076 3.860487
16.945887 -7.2267146 3.7745037
17.123016 -7.2362523 3.7781556
16.856621 -6.6963758 3.6835616
17.125961 -6.936995 3.6095603
-10.943897 -6.3378849 3.8068533
16.859365 -6.2461958 3.7495654
17.048962 -6.0868883 3.7135444
25.233587 -6.1690073 3.7605574
-11.175875 -5.8604264 3.7728782
16.916138 -5.9451518 3.9037533
17.063049 -5.9369378 3.7389107
25.295073 -5.7756147 3.7567644
14.850345 0.95975208 3.6375079
15.243086 0.92042965 3.6806517
15.789752 0.91805899 3.6683469
16.234882 0.81562173 3.657696
16.743517 0.85859531 3.6416919
17.235218 0.87756366 3.6743431
17.730366 0.83065718 3.6746297
18.242916 0.8046416 3.6250751
18.763992 0.86664975 3.6313119
19.238276 0.85302424 3.6842282
19.714436 0.85956234 3.6626482
20.246918 0.87234539 3.673717
20.751091 0.86735344 3.6748071
21.252359 0.83149743 3.6822846
21.756941 0.84183115 3.6350281
22.263113 0.83426666 3.7084544
22.737698 0.70124304 3.7056541
23.227749 0.70030355 3.6388645
23.793421 0.73732668 3.6671903
24.187704 0.82937032 3.6494367
24.790916 0.94987828 3.7726278
25.422512 0.88335907 3.8274808
25.912281 0.95082903 3.7604978
26.243462 0.9269464 3.7415709
26.626858 0.90601826 3.6510849
4.9713621 1.450124 3.6249413
5.01752 1.3800546 3.5978706
13.901644 1.4683732 3.5066655
14.392185 1.4762089 3.7352173
14.69243 1.2773769 3.6649768
15.2909 1.172809 3.5466845
15.772544 1.2520578 3.5238957
16.282093 1.217905 3.5213399
16.76572 1.2355438 3.5278525
17.263308 1.3094996 3.5398934
17.749653 1.2657397 3.5391202
18.243114 1.2531748 3.5289397
18.726933 1.2257116 3.5321229
19.197277 1.243567 3.5370688
19.629356 1.3315307 3.5421
20.353706 1.0387783 3.618485
20.827915 1.1031723 3.5249567
21.131489 1.0629748 3.5379887
24.330397 1.037522 3.6047752
24.774567 1.1215067 3.5755734
25.24367 1.1410737 3.5861468
25.792336 1.1051677 3.6373599
26.204441 1.1744982 3.59688
26.652822 1.1021844 3.5593483
4.8036976 1.7587687 3.7390296
5.2340264 1.7811618 3.7134955
5.5990763 1.8972735 3.6207893
12.366572 1.734175 3.532434
12.861245 1.8422538 3.6531403
13.244984 1.7692436 3.6607904
13.730749 1.7468874 3.6648219
14.196546 1.6832176 3.7621782
14.641269 1.5852911 3.8286345
15.831275 1.6669184 3.5202539
16.248911 1.6533961 3.5255058
16.772587 1.6402823 3.5347483
17.269043 1.6522313 3.5498369
17.768251 1.6981933 3.5545375
18.216654 1.685523 3.5678647
18.749765 1.6655444 3.5888476
19.227787 1.6549524 3.5481901
19.659323 1.6696489 3.5667758
20.20562 1.5449272 3.5380623
21.473732 1.8203055 3.5708761
21.709919 1.7291099 3.5930858
22.122391 1.7779703 3.5627661
22.83115 1.7350982 3.5557003
23.296829 1.7112396 3.5421205
23.754539 1.7165351 3.5481081
24.015623 1.766044 3.5520585
24.619043 1.6933589 3.6433396
25.346439 1.5149517 3.7388523
26.189823 1.8560977 3.5179374
4.2810826 2.176079 3.7504997
4.6503463 2.0272884 3.747272
5.339448 2.0244088 3.925786
5.7962451 2.1353915 3.6503634
12.313642 2.2274463 3.7060997
13.22373 2.0589061 3.9557776
4.1964264 2.7289326 3.7513454
11.347136 2.8286858 3.5440855
11.72928 2.7548835 3.6934254
12.083798 2.8085794 3.8250329
4.1902337 3.2368538 3.7417572
11.186785 3.0574026 3.5154009
11.991611 3.230402 3.8741429
4.1965909 3.7506061 3.7772789
5.619411 3.8931773 3.6943564
14.687786 3.8786612 3.5114453
4.2032108 4.2766767 3.7508731
5.6313162 4.182322 3.5979543
11.989895 4.1192417 3.9785862
12.005674 4.3057919 3.9178407
14.691847 4.3758345 3.5250921
4.2117848 4.7650251 3.7724538
5.4332781 4.8753901 3.518167
7.43506 4.9442515 3.9380958
7.5938349 4.9302115 3.8517702
10.356972 4.9766407 3.815038
10.547911 4.8841696 3.5419617
11.70657 4.7905855 3.925276
14.682922 4.7319417 3.5499854
-8.8330402 5.2129717 3.7997959
4.2179217 5.2415247 3.7575672
5.2882562 5.3491297 3.5909457
5.6355782 5.362987 3.5617762
6.9621878 5.4871607 3.8984036
7.252727 5.2835631 3.7740428
7.627049 5.0755777 3.6690488
9.2776461 5.325778 3.6596298
9.7460709 5.32025 3.7162025
10.21921 5.1620145 3.7339671
10.719869 5.2970252 3.7958236
11.264258 5.3617535 3.7771957
11.627563 5.1830077 3.84935
14.643691 5.0231981 3.5913372
4.2212567 5.7357206 3.7603199
4.9322901 5.911952 3.5557113
5.2258878 5.7427521 3.5691786
5.6862097 5.7953148 3.6153498
6.408483 5.8618145 3.5994382
6.8061085 5.8608222 3.6724315
7.1976004 5.7388735 3.6833351
7.7346721 5.8461118 3.6405597
9.255599 5.7691164 3.7332313
9.7323532 5.573688 3.8297169
10.115422 5.6167645 3.8457825
10.965075 5.540421 3.8518991
11.181905 5.5768819 3.8837798
14.658518 5.6392932 3.5655937
3.9727883 6.4316902 3.7400255
4.1961746 6.2568679 3.7652638
4.9204364 6.2940784 3.5476797
5.2123652 6.2316399 3.5681157
5.7968364 6.2459292 3.8109689
6.2756386 6.2158656 3.8627641
6.7302918 6.2505364 3.7720976
7.2465901 6.113277 3.765825
7.7499599 6.2403951 3.784559
8.130599 6.2052922 3.7653797
8.7893362 6.3357091 3.7595372
9.143981 6.1796017 3.7512441
3.9501104 6.8121896 3.8284307
4.1237407 6.7064872 3.7528546
4.9330835 6.7092113 3.5443435
5.2313128 6.7144423 3.5571411
5.9371562 6.531034 3.8638234
6.2638402 6.60921 3.941654
6.7625508 6.6220632 3.857116
7.4417033 6.7446775 3.962575
7.5284986 6.5597496 3.9503284
8.4259529 6.5815387 3.8395925
8.7509613 6.5914149 3.8580079
3.9442873 7.2343483 3.7845457
4.1305313 7.15029 3.6752248
4.9268775 7.2185454 3.5395989
5.1802893 7.1979232 3.5320933
3.9587553 7.6100144 3.7373905
4.0956087 7.720108 3.6882503
4.9159021 7.8119669 3.528651
5.1601 7.7187757 3.5344508
-7.4160361 8.3907652 3.8278682
4.9437876 8.027462 3.5234194
5.0812936 8.005579 3.5591002
-7.5354424 8.5485649 3.5347857
-7.3435583 8.6974001 3.7568398
-8.2261696 15.615901 3.9420176
-10.90276 -12.539109 4.1948128
-11.574422 -12.147395 4.1197948
-11.229016 -12.174751 4.2278605
-10.902371 -12.27871 4.334136
-11.712478 -11.780993 4.2012506
-11.296305 -11.838113 4.2881546
-10.966777 -11.80276 4.3686171
24.787895 -11.56304 4.424345
-11.691668 -11.188841 4.3744063
-11.216737 -11.369 4.3601556
-10.78852 -11.200095 4.4394898
24.768703 -11.25405 4.2943254
-11.216116 -10.919975 4.491559
-10.693048 -10.898128 4.4641051
24.762821 -10.757646 4.239841
-10.110741 -9.6461716 4.1130962
-9.8829021 -9.5798798 4.1460791
-10.577353 -9.2920475 4.0575547
-10.195342 -9.248908 4.2782679
-9.8375845 -9.3422899 4.3020558
24.858746 -9.293932 4.4682283
25.344725 -9.089654 4.2014976
-10.274734 -8.888258 4.4071016
-9.6933012 -8.6708527 4.1973057
-9.2770462 -8.6522903 4.0462384
25.358831 -8.7737017 4.3217297
25.563328 -8.6774397 4.2109957
-10.613414 -8.1889811 4.1942797
-10.105837 -8.0923004 4.1224422
-9.7055044 -8.2451143 4.1886072
-9.4606209 -8.2036638 4.2335649
17.108158 -8.1087294 4.4602275
25.299385 -8.2409143 4.4223814
25.597939 -8.3010521 4.3858242
-10.559638 -7.7828407 4.2977343
-10.451336 -7.876318 4.232338
-9.6663332 -7.9578991 4.3322573
17.140846 -7.7350807 4.3006539
25.285652 -7.8967977 4.444983
14.698752 -7.1409969 4.4321437
17.135628 -7.3471527 4.1868224
14.420055 -6.8742785 4.4697123
14.729789 -6.8895545 4.4542027
16.753504 -6.5519133 4.1614623
17.184772 -6.6087437 4.4914126
-10.868847 -6.3349228 4.1446557
16.76317 -6.2838626 4.2798638
17.086742 -6.361012 4.4891696
25.280455 -6.1806922 4.2548237
-11.115116 -5.8012776 4.1797113
-10.628855 -5.5024147 4.4857802
16.823475 -5.8653893 4.2511368
17.034004 -5.835433 4.040741
25.362749 -5.8206263 4.2356639
25.510098 -5.6867919 4.228003
-10.629486 -5.334228 4.4586849
-10.760185 -4.945137 4.2896452
-10.479053 -4.8886375 4.2832422
22.697224 0.49089921 4.0309992
21.915352 0.71581078 4.0466094
22.357656 0.73375976 4.0738959
22.629932 0.61261892 4.0236411
23.92767 0.54535389 4.0722961
25.064472 0.87376606 4.0682106
25.800507 0.88417453 4.06355
25.402697 1.253433 4.0896559
26.343019 1.3487602 4.2543201
4.4537992 1.9312423 4.2212563
4.7805181 1.871981 4.10637
5.0397186 1.9157366 4.0762906
14.434666 1.934623 4.1110749
14.732708 1.8824139 4.2462063
15.195936 1.9016452 4.3582454
15.732491 1.8934722 4.4074798
16.097683 1.8947071 4.4711905
19.508381 1.7065346 4.0972142
4.2569976 2.1895561 4.2666202
4.7581954 2.0427084 4.2541513
5.2842426 2.1333795 4.2260103
13.336624 2.2092118 4.0842729
14.401486 2.2156353 4.3201938
14.530909 2.1969228 4.3308458
4.1906033 2.7647235 4.2369866
13.377923 2.8181546 4.240458
13.704929 2.8566303 4.4032998
14.252902 2.5660508 4.4496055
14.574211 2.5381806 4.4404888
4.1901793 3.2571971 4.2407718
12.740694 3.484585 4.2555056
13.342224 3.061152 4.3919625
13.784872 3.0221536 4.4397264
4.1863332 3.7480586 4.2393646
12.476646 3.7157516 4.1339273
12.611581 3.6632948 4.2151089
4.202435 4.260622 4.239646
5.4915628 4.1134825 4.202631
5.579205 4.2256207 4.3586731
12.21861 4.3974748 4.1820941
12.930779 4.0719924 4.2406473
13.142814 4.2427187 4.3542929
4.2090082 4.7593946 4.2562456
10.322569 4.9611263 4.0357337
11.831073 4.819766 4.2289028
12.201426 4.7450161 4.333158
12.633909 4.674366 4.4899511
13.386717 4.5568862 4.4881606
-8.7615681 5.1097641 4.2275515
4.218174 5.2563477 4.2267399
6.9417305 5.3761597 4.0917101
7.1580997 5.2655063 4.0692072
9.8831959 5.3165159 4.0690937
10.136006 5.129355 4.0484748
10.777561 5.387413 4.1178489
11.305043 5.4233665 4.1908069
11.692167 5.2302508 4.2609825
4.2250175 5.7493782 4.2414269
5.491364 5.6229534 4.0235071
6.883359 5.9599538 4.103672
7.2303538 5.620388 4.0630913
9.04389 5.9970679 4.0161967
9.9882193 5.6316204 4.1874514
10.075831 5.6701708 4.0827112
10.89834 5.5465374 4.2489033
11.285341 5.587811 4.2217155
11.608997 5.5530357 4.4288058
3.9473474 6.3625979 4.3379617
4.2029762 6.244875 4.2507095
5.8311367 6.2108097 4.1050677
6.2178578 6.2659373 4.0861926
6.7491221 6.2901268 4.0756221
7.3460894 6.1435022 4.252449
7.8430014 6.2844391 4.1018009
8.1098404 6.3412385 4.0363274
8.8569155 6.2712393 4.0545435
9.2824612 6.2362409 4.1066723
-6.7725682 6.9543457 4.4112878
-6.4804416 6.9148965 4.4952736
4.2666225 6.7424278 4.2850032
6.2734194 6.7317042 4.0914688
6.8152542 6.5499496 4.0497389
7.4587317 6.8291664 4.0808249
7.5754509 6.7122507 4.157763
8.3732939 6.7842741 4.0805969
8.6158276 6.711648 4.1158671
-6.7874126 7.0219927 4.3983278
3.8454733 7.1177588 4.1217475
4.1972375 7.1410813 4.3042912
6.7840967 7.4417944 4.4361429
7.1710253 7.3388252 4.374897
8.476469 7.4309053 4.3912706
8.7389269 7.2996168 4.3287735
9.2563114 7.3684301 4.3771629
4.1707478 7.6856356 4.4435782
6.5303864 7.5016041 4.4263201
8.6340504 7.5687313 4.435648
-7.4218636 8.3811636 4.0836558
6.7335672 8.1913376 4.4550776
-7.2550015 8.7443218 4.2602482
-8.2708244 15.412976 4.2276735
-8.141223 15.642899 4.2730241
-11.215782 -12.133264 4.7069144
-10.878946 -12.190222 4.6654387
-12.082767 -11.55582 4.7455211
-11.639864 -11.703223 4.5555072
-11.265562 -11.826241 4.6697664
-10.947591 -11.825138 4.6171832
-12.044016 -11.375972 4.5237293
-11.624691 -11.237342 4.6234341
-11.30382 -11.239316 4.6486464
-10.729786 -11.10081 4.7538648
24.805859 -11.381947 4.7081032
25.101917 -11.188541 4.9930305
-11.648411 -10.862461 4.731648
-11.157207 -10.803255 4.793951
-10.70115 -10.829688 4.7999263
16.276842 -10.666203 4.8867087
24.781521 -10.867793 4.5656409
25.005068 -10.962414 4.9189353
16.44388 -10.437146 4.8824792
16.572016 -10.313964 4.8395267
-10.152807 -9.126749 4.6561756
-9.7865086 -9.1964941 4.6640043
24.910437 -9.1679535 4.7596779
25.149334 -9.0527649 4.6563749
-11.238348 -8.5339289 4.9277949
-10.158459 -8.9490013 4.8571987
-9.8639965 -8.7877083 4.7529583
13.824173 -8.6452713 4.9297318
24.921053 -8.7869244 4.8296976
25.126537 -8.7278051 4.6975369
-10.836683 -8.1936941 4.6403227
-10.111555 -8.4827929 4.633121
-9.7162685 -8.2067938 4.5646114
13.8601 -8.2628536 4.8846841
14.208598 -8.1459332 4.834981
16.969498 -8.3273363 4.8980851
17.081354 -8.1514378 4.7403941
24.956821 -8.2828608 4.9120483
25.173542 -8.2559299 4.7435641
-10.704707 -7.7266197 4.7123928
13.907361 -7.922514 4.9534664
14.260676 -7.7736516 4.8757863
14.638986 -7.6312461 4.7846956
17.14212 -7.8128886 4.6995206
24.930992 -7.8162875 4.8253264
25.187237 -7.7651005 4.7686448
25.503349 -7.5206079 4.6854029
14.406967 -7.2002969 4.7963495
14.65279 -7.2208061 4.7611117
15.042135 -7.0384789 4.734724
17.192778 -7.3548727 4.5110641
25.16328 -7.4725146 4.8726101
14.39357 -6.8431158 4.7480416
14.794475 -6.7780685 4.7505612
15.062941 -6.8631892 4.7277446
17.336163 -6.6070428 4.7140794
17.504696 -6.6014814 4.9402752
-10.88389 -6.0565677 4.6215
14.977024 -6.4526548 4.7141013
15.01177 -6.4905329 4.8393888
16.395874 -6.0603142 4.917592
16.722086 -6.1909733 4.6462421
17.091827 -6.3985991 4.7029333
25.349209 -6.1976261 4.7527146
-11.04355 -5.738493 4.5988822
-10.8451 -5.7007794 4.6782274
-10.431751 -5.6756763 4.9031119
16.427032 -5.8117714 4.9323187
16.70833 -5.7881522 4.75493
25.389799 -5.8632355 4.726181
25.555063 -5.6993561 4.7185931
-10.541615 -5.2739692 4.8729129
-10.362184 -5.2373571 4.7160692
-10.729814 -4.8789845 4.7759447
15.270564 -4.664618 4.9289126
15.513635 -4.5413151 4.816638
14.926249 -4.0568275 4.8515472
15.284643 -4.1260958 4.9188957
15.606769 -4.1238899 4.9448018
14.397558 -3.6085021 4.9660921
14.767972 -3.7137399 4.8395238
15.224008 -3.7495949 4.7782273
15.603179 -3.8145216 4.8800306
14.409047 -3.2659984 4.9442759
14.765825 -3.2567747 4.8012204
15.257995 -3.2562814 4.6948838
15.58359 -3.1149175 4.8485384
14.469455 -2.78336 4.9253092
14.75094 -2.7548048 4.8465133
15.118848 -2.836482 4.7695169
15.542664 -2.961652 4.8347769
14.441449 -2.4896321 4.9840088
14.845098 -2.4497244 4.9201312
4.2024984 1.9443194 4.845695
14.454247 1.9677607 4.7806263
14.741397 1.9189569 4.7573557
15.237322 1.9158195 4.7561102
15.76151 1.8776798 4.7710543
16.268812 1.8883669 4.7317133
16.738354 1.897431 4.8003273
17.259884 1.8901924 4.8290038
17.755495 1.8806125 4.9075203
18.185789 1.871266 4.920692
18.709721 1.8607653 4.9283648
19.88139 1.8491974 4.9022675
20.370024 1.8367115 4.9755259
21.634562 1.8282304 4.9931564
22.13105 1.8587255 4.9727254
22.654816 1.8247154 4.9442391
23.039774 1.8305882 4.8678751
23.980499 1.8401299 4.9092422
24.494267 1.8374805 4.9986248
24.799484 1.8021424 4.7644591
25.291 1.7913721 4.8112664
25.842224 1.7888973 4.8687897
26.321722 1.8199201 4.8484859
4.2704268 2.1956069 4.7416377
4.7557549 2.0678902 4.7256064
5.1108398 2.2270832 4.7599616
14.440036 2.2352257 4.7575464
14.538786 2.4472988 4.71347
4.1891184 2.7600462 4.7390318
5.1141825 2.5320902 4.9745789
13.919982 2.9303746 4.5480032
14.235807 2.8449275 4.7003932
14.645728 2.7425666 4.7686133
4.1921606 3.2409048 4.7393045
13.895221 3.1856475 4.5783968
14.160596 3.2085235 4.7082953
14.687012 3.2315223 4.8587828
4.1969767 3.7488382 4.7298427
14.229698 3.5070264 4.7194438
14.704423 3.6962843 4.9201732
4.1930389 4.251761 4.7295465
5.4846992 4.2366323 4.7481508
5.5784163 4.2579751 4.6514959
13.378073 4.4507208 4.5117559
13.863148 4.4471951 4.7998905
14.096046 4.4599185 4.9332027
-8.7351074 4.8837042 4.9327054
4.2097502 4.7424755 4.731904
11.912306 4.8685555 4.5337682
12.159462 4.7608151 4.5201893
12.508803 4.7462354 4.5226135
13.813221 4.6304874 4.7781439
14.080661 4.6241407 4.9276867
-8.6998081 5.1013436 4.5410686
4.2162189 5.253696 4.7434192
11.824375 5.2456694 4.5579104
12.074219 5.039135 4.6233163
-3.4617596 5.5155892 4.988687
4.2225866 5.7487864 4.7384911
11.463447 5.6460242 4.5413136
11.75589 5.5805945 4.5698209
3.9244471 6.3650084 4.722764
4.2105927 6.267477 4.7536139
-6.7488632 6.9432869 4.6538744
4.1153927 6.5937414 4.6262817
-6.6926413 7.0310235 4.7121949
4.285099 7.3585944 4.5610509
8.6802549 7.4559379 4.6062989
9.2734032 7.4083381 4.6311927
9.5646849 7.3913355 4.7417889
4.2501469 7.706171 4.812521
4.5784254 7.9670153 4.9490628
6.4329996 7.7803583 4.7508893
6.6521268 7.89011 4.8275371
8.48281 7.5806599 4.6680422
8.8043633 7.6563435 4.7353034
9.259079 7.709301 4.7984252
9.6241808 7.8075995 4.8660941
10.207567 7.6752515 4.8090358
-7.2433476 8.4560699 4.7102408
6.7314649 8.3228655 4.8860221
7.009799 8.4172754 4.9988656
8.4089432 8.4059677 4.958168
8.7453032 8.1636171 4.8758698
9.2615032 8.1181107 4.8518562
9.7089338 8.1754503 4.8499856
10.211689 8.1639194 4.866673
10.574771 8.1076727 4.9540157
-7.1433935 8.749732 4.7233348
-6.9326916 8.81954 4.9206505
3.4208717 8.6140471 4.9220247
3.6057687 8.614481 4.9491367
-7.0458946 9.0592775 4.8350425
-6.9614739 9.1260452 4.9379406
4.2757473 9.103693 4.9267969
-8.1886559 15.442622 4.9132533
-8.1519566 15.610643 4.6120739
-7.9973202 15.566761 4.9365115
-11.55246 -12.371155 5.0811048
-11.429716 -12.279658 5.1882439
-11.430865 -11.563195 5.3863869
-11.071359 -11.116879 5.1966867
-10.807495 -11.087737 5.1420107
24.879208 -11.018589 5.2843308
-11.6003 -10.543478 5.1465397
-11.174538 -10.620543 5.1722922
-10.819776 -10.744792 5.1231704
14.737573 -10.65931 5.3980885
15.21285 -10.728531 5.4537263
15.856598 -10.686738 5.3370876
16.138538 -10.652579 5.1792855
-11.713146 -10.325649 5.4727392
-11.202693 -10.441236 5.2332478
14.760101 -10.389662 5.4376616
15.940327 -10.389835 5.3399138
16.257446 -10.270399 5.2986088
16.659321 -10.14542 5.1907163
-11.544826 -9.6922455 5.3582206
-11.433208 -9.8895102 5.4505401
16.319445 -9.954874 5.4006796
16.745579 -9.9278574 5.4076061
-11.551224 -9.4327354 5.387435
-11.190338 -9.1200724 5.3338761
13.735133 -9.1195583 5.4091921
14.033178 -9.088582 5.4824328
24.903326 -9.1901398 5.0889206
25.04833 -9.1443148 5.3681188
-11.167133 -8.7554417 5.3041782
-10.787575 -8.7421618 5.2044935
-10.409386 -8.7631893 5.1306543
-9.754838 -8.789607 5.1260848
13.429407 -8.7599459 5.3305864
13.700552 -8.7222223 5.2383823
16.983368 -8.5224476 5.4829383
24.934711 -8.7710094 5.221983
25.083723 -8.7459097 5.2448139
-11.252906 -8.368763 5.3503265
13.400022 -8.3232527 5.3370414
13.711506 -8.2099552 5.2176981
16.897482 -8.2402277 5.225771
17.041431 -8.0513783 5.1273322
24.888149 -8.2516775 5.2867627
25.078793 -8.2395487 5.2026296
-11.37056 -7.8836594 5.4771547
13.819011 -7.7886863 5.2301569
14.170638 -7.6413102 5.2744236
14.635637 -7.5542531 5.0923691
17.142538 -7.863308 5.0692797
24.900604 -7.932478 5.3570952
25.195904 -7.7823229 5.2427425
13.954638 -7.4628544 5.2562323
14.283742 -7.2965107 5.2615719
14.680481 -7.1990929 5.1951528
15.015892 -7.0115786 5.3860011
25.252045 -7.4966407 5.0706401
14.382331 -6.8873525 5.2174869
14.783751 -6.7950006 5.2484045
15.06137 -6.6446457 5.3021007
17.455444 -6.5618615 5.0081239
25.607357 -6.6082659 5.3552504
14.991577 -6.4576545 5.4050598
15.023983 -6.4276443 5.3038187
16.376713 -6.0455713 5.2137041
16.510334 -6.0820675 5.4781971
25.410383 -6.1773858 5.2014313
25.575275 -6.1824198 5.3372002
-11.050533 -5.8295517 5.4620609
-10.859416 -5.8566666 5.299262
-10.211929 -5.5225267 5.3527679
-9.8473091 -5.6880083 5.1330986
-9.1494808 -5.7743306 5.3096824
15.942103 -5.7538648 5.4451189
16.264959 -5.7457819 5.2752333
16.734043 -5.7721543 5.2079368
25.440023 -5.911767 5.1382504
25.610521 -5.8063669 5.2763162
-11.009573 -5.4552264 5.4085703
-10.704741 -5.1692681 5.2807593
-10.171358 -5.329401 5.1106167
-9.7936182 -5.3453665 5.2474151
-9.4422894 -5.4896693 5.4762106
13.320245 -5.0817542 5.4611893
13.587661 -5.0794182 5.4539862
14.027879 -5.4568052 5.4932661
15.883615 -5.4400239 5.4943514
16.129484 -5.459723 5.3810945
-11.149337 -4.7210426 5.3211727
-10.778772 -4.829 5.2172341
-9.6539726 -4.6444974 5.4685178
12.992542 -4.7474833 5.4836922
13.268718 -4.7560825 5.4443064
13.694972 -4.6652789 5.3653994
15.249117 -4.6256971 5.2647815
-11.099458 -4.462595 5.3140354
-10.713491 -4.2196636 5.3595214
13.288272 -4.4361296 5.4746475
13.77537 -4.2794247 5.3858523
14.109331 -4.2236686 5.3606191
14.825377 -4.1146889 5.337182
15.229994 -4.2431355 5.2279844
15.578129 -4.1682982 5.0653229
-10.604281 -3.8194263 5.3659768
13.382895 -3.6573229 5.4871035
13.786154 -3.750808 5.4578142
14.368508 -3.6870332 5.3068452
14.72665 -3.7790337 5.2178874
15.100728 -3.9251235 5.2376275
13.871218 -3.484591 5.4518809
14.379985 -3.2330942 5.2719393
14.611256 -3.1717846 5.285006
15.035788 -3.0018315 5.4483252
14.374209 -2.7795916 5.2663713
14.703995 -2.7612436 5.2797365
15.073736 -2.7826157 5.4295754
14.453405 -2.4717112 5.3401451
14.736922 -2.3835177 5.1507349
4.4063659 1.9841454 5.4056797
4.7489161 1.9757048 5.324811
14.462343 1.966985 5.1331148
14.777858 1.9280074 5.227242
15.252802 1.9134965 5.2509608
15.763419 1.9047917 5.2419562
16.261618 1.8950686 5.2126713
16.766096 1.8904496 5.2039313
17.250843 1.8905615 5.2022123
17.751701 1.9031179 5.2744837
18.247402 1.8944335 5.2647581
18.74778 1.8760326 5.2671542
19.244812 1.8737805 5.2948966
19.737539 1.8626328 5.3269525
20.209509 1.8592182 5.3766155
20.690536 1.8398496 5.3046999
21.269073 1.8510547 5.1589303
21.687775 1.8317873 5.1544619
22.074978 1.831697 5.1243377
22.753487 1.8801924 5.2511773
23.358084 1.8363581 5.1790037
23.787954 1.830683 5.3103552
24.278984 1.8266734 5.2460604
24.806166 1.808027 5.222435
25.234175 1.7971529 5.2816558
25.747541 1.7648387 5.3908753
26.206152 1.7572551 5.3122301
26.640579 1.7627158 5.3509426
4.2456608 2.1827617 5.2513189
4.7322664 2.0717468 5.2457366
5.0837526 2.1927433 5.1110821
14.447015 2.2403085 5.2469258
14.536649 2.2904549 5.3004785
17.495523 2.0115018 5.4055486
4.1853447 2.7089398 5.2399511
14.658123 2.7248604 5.2600393
4.1927371 3.2344534 5.224484
14.681291 3.2299738 5.2718711
4.1989093 3.7661216 5.255487
14.680855 3.7246974 5.2563992
4.2007318 4.2660203 5.2760344
14.28311 4.4520555 5.0769954
14.695501 4.23769 5.2626109
-8.6860008 4.8069205 5.2722831
4.2038398 4.7343445 5.2444196
14.311143 4.6364985 5.1385875
14.703908 4.7336531 5.3267612
-4.0412483 5.3846531 5.4454508
-3.708673 5.3697844 5.3820305
-3.4391174 5.3466682 5.1350574
-2.9846601 5.272357 5.4922895
4.2137971 5.2341299 5.2448168
14.706594 5.2681541 5.381671
-3.7277288 5.6083326 5.3293314
-3.4729381 5.5132771 5.1546025
4.2213292 5.7355947 5.2436719
14.459065 5.9958019 5.4179726
14.72725 5.7683902 5.391798
4.2262764 6.253324 5.2681193
14.479244 6.0232573 5.4400721
14.598226 6.1106262 5.3721538
4.2284865 6.5307279 5.2958508
4.2763586 7.7795324 5.2428465
4.6416149 7.9519701 5.2741756
5.4296818 7.902576 5.2682977
5.700285 7.849143 5.2958055
8.7430878 7.9670691 5.2841702
9.5809546 7.9958777 5.0702076
4.2532263 8.2421379 5.3370085
4.8885155 8.099494 5.3618498
5.1920924 8.1045084 5.2659755
5.9843154 8.0745382 5.3200741
6.2409344 8.2794571 5.3263102
6.7349377 8.3319893 5.2677975
7.1227455 8.3588114 5.2205462
8.4180269 8.3123846 5.2675886
8.7135582 8.1346216 5.2630501
9.2379675 8.0698509 5.2653766
9.7558937 8.1073475 5.2472901
10.252479 8.0614758 5.2305741
10.760522 8.0656128 5.2432628
11.170712 8.1765041 5.3230243
11.71784 8.4380341 5.3822103
12.314629 8.498126 5.4245358
-7.1295223 8.8392458 5.2309294
-6.8756862 8.9402494 5.2396207
3.3597147 8.7477446 5.2646408
3.6906562 8.7526751 5.2869735
4.1695623 8.6721916 5.449327
6.6001472 8.5182858 5.0539784
7.3380289 8.5796938 5.3262358
7.7099905 8.5913029 5.4415922
8.2401962 8.6122913 5.3664517
11.531152 8.5492058 5.2903962
12.170517 8.5079966 5.4083567
-6.8274784 9.0727482 5.3263435
-6.4513965 9.0680952 5.4941196
3.7498684 9.0777664 5.3027253
4.2618661 9.2637358 5.2346268
4.2622709 9.7191534 5.2242866
4.2650738 10.45947 5.4324493
4.2674584 11.099274 5.4245381
-8.0794964 15.390549 5.2744331
-8.0395527 15.581501 5.0145745
-7.89568 15.592978 5.2037258
-12.351101 -12.185056 5.9737353
-12.616868 -11.748303 5.8327398
-12.34511 -11.843437 5.8769617
-11.118917 -11.00259 5.5623713
14.177066 -11.02424 5.9593315
14.513189 -11.131799 5.6465693
13.864013 -10.719914 5.8964257
14.238008 -10.72862 5.7874751
14.691903 -10.685296 5.6620603
15.110642 -10.632938 5.6436367
15.805332 -10.676392 5.7639284
16.098328 -10.574571 5.5676956
-11.586481 -10.390265 5.519413
13.905278 -10.26088 5.9001055
14.241676 -10.245131 5.7899656
14.721793 -10.276179 5.7088499
15.168599 -10.347264 5.7783804
15.893861 -10.288999 5.7776098
16.181747 -10.245825 5.6389785
16.656551 -10.05689 5.5092373
-11.574646 -9.5880175 5.6580749
-11.456411 -9.5924101 5.8487844
13.839709 -9.6833916 5.8958936
14.199648 -9.8110285 5.820827
14.565369 -9.901885 5.812469
15.920591 -9.8890963 5.7323833
16.244965 -9.8259573 5.7050271
16.728188 -9.762661 5.6549764
-11.619713 -9.3624029 5.8279943
-11.356701 -9.1288729 5.5804739
13.46377 -9.1274719 5.7736373
13.803012 -9.2437296 5.8011541
14.037166 -9.1426039 5.7035928
16.957172 -9.4566689 5.8046598
24.470589 -9.0632439 5.9647708
25.034445 -9.0127907 5.5669346
-11.190978 -8.7434454 5.6400585
13.384726 -8.6141796 5.8461618
13.759794 -8.7657261 5.7459292
14.035777 -8.9573326 5.758142
24.41503 -8.6618099 5.9027696
24.820549 -8.6777134 5.7343535
25.158365 -8.8931494 5.7474098
-11.518866 -8.2686529 5.8432388
-11.328482 -8.3604336 5.7391372
13.331827 -8.258625 5.83882
13.713855 -8.2638063 5.771234
14.010906 -8.3934879 5.8853345
16.694246 -8.4735041 5.5034018
17.002827 -8.4937401 5.5478759
24.378691 -8.2825737 5.8460007
24.734354 -8.1914368 5.7232289
25.018387 -8.2660151 5.5911841
-11.388688 -7.8313403 5.6726274
13.370998 -7.9068623 5.9251904
13.783772 -7.7599764 5.8046403
14.073794 -7.6317754 5.6843905
15.148072 -7.6140852 5.8657928
24.473764 -7.9232664 5.8029575
24.770458 -7.7782478 5.7654543
25.131514 -7.7282176 5.6473498
25.643419 -7.5515823 5.7326422
-10.945951 -7.1447649 5.8686466
-9.1469383 -7.0910196 5.6178913
-8.665103 -7.1024537 5.7738729
-8.4512844 -7.213799 5.8558903
13.89292 -7.3300571 5.7150941
14.153384 -7.2698126 5.7062712
14.779584 -7.1484323 5.7356381
15.13104 -7.2053781 5.8641181
15.821981 -7.0649438 5.9977665
24.340456 -7.1832471 5.9857306
24.868345 -7.3846006 5.8952847
25.064194 -7.371316 5.7984252
-10.82634 -6.8943396 5.9882317
-9.6344681 -6.6581836 5.7883568
-9.3434067 -6.7717738 5.8153157
-8.7091303 -6.7634764 5.8694196
-8.4166307 -6.9177895 5.9072866
14.364779 -6.8869815 5.6462288
14.766079 -6.8449297 5.7190371
15.195166 -6.7541962 5.7786622
15.611525 -6.689003 5.9262209
24.392941 -6.8787861 5.9384489
24.636908 -6.687851 5.9670944
25.77289 -6.6373048 5.8092999
-9.6393881 -6.275394 5.8267608
-9.2580643 -6.2700682 5.8278542
-8.8409843 -6.3005552 5.8318987
14.922707 -6.3277459 5.9271665
15.254951 -6.4836326 5.7241964
16.381523 -6.0917802 5.6741557
16.802711 -6.2279811 5.8246865
17.019005 -6.3359947 5.8706679
25.466396 -6.2106533 5.5537591
25.64488 -6.2396727 5.7263384
-10.96809 -5.8066521 5.5288086
-10.101181 -5.5444379 5.7497401
-9.6873798 -5.7790442 5.7816653
-9.2246561 -5.7068558 5.8011212
13.404979 -5.5693555 5.8606625
13.698902 -5.6613631 5.8032045
14.066803 -5.6123872 5.7613864
15.384648 -5.5225315 5.8739982
15.797554 -5.628633 5.6537538
16.215208 -5.8261166 5.6792908
16.774755 -5.8493266 5.6089191
25.667917 -5.8815503 5.6868577
-11.370546 -5.0469894 5.9736571
-10.118217 -5.1785865 5.8060536
-9.7953682 -5.3760643 5.7201443
12.871062 -5.1484156 5.8450794
13.250472 -5.239171 5.7763071
13.723173 -5.2717462 5.691565
14.017723 -5.1691341 5.6950827
15.395984 -5.3086038 5.9307685
15.723669 -5.3428044 5.7358065
16.035725 -5.3457108 5.637989
-11.186457 -4.6951404 5.7296286
-10.718614 -4.8136292 5.6987572
-10.244234 -4.7201619 5.7824383
-9.764183 -4.81991 5.7843103
12.846326 -4.7803221 5.8007145
13.207709 -4.728446 5.5991702
13.702059 -4.7989731 5.5537257
14.046768 -4.9214692 5.6775036
14.897153 -4.5318274 5.6847844
15.236898 -4.5985041 5.6472487
-11.184241 -4.4358311 5.797986
-10.761596 -4.2061768 5.556932
-10.230504 -4.2436571 5.8191805
12.902488 -4.2625594 5.8338847
13.209725 -4.2709641 5.6828275
13.64914 -4.2097979 5.6649866
14.263573 -4.1908498 5.5948157
14.740462 -4.1852827 5.6758947
15.206177 -4.2828732 5.664979
-10.572131 -3.8398035 5.7094889
-10.450874 -3.9419782 5.8509026
12.945842 -3.881604 5.8989315
13.265192 -3.741251 5.7494969
13.727635 -3.7892015 5.6050091
14.243526 -3.7357595 5.620492
14.628134 -3.8356299 5.6125321
15.134729 -3.9189639 5.5778174
13.374729 -3.3349171 5.8380594
13.760545 -3.2799547 5.7498493
14.244634 -3.2335391 5.7327175
14.637716 -3.1794 5.7741466
14.303535 -2.8518629 5.7338123
14.725103 -2.8185585 5.7540731
15.066615 -2.788801 5.7163925
14.465861 -2.4254131 5.5154819
14.66569 -2.4445944 5.5045404
-8.0911846 -0.65413535 5.6490664
-7.1688795 -0.82250667 5.838645
-8.1376734 -0.4219436 5.9446583
-7.8875456 -0.40831041 5.9808035
4.3382835 1.9601326 5.7600532
4.6586881 1.9711512 5.72685
14.786464 1.9298658 5.7866821
15.248364 1.9334828 5.7506413
15.709863 1.9204679 5.7605715
17.39476 1.9688567 5.5390396
17.772257 1.9614643 5.5448933
18.362535 1.9602578 5.6413589
18.729195 1.8788991 5.762785
19.249323 1.8840531 5.7283893
19.766035 1.8799376 5.7629604
20.248901 1.8772368 5.7342725
20.64727 1.8564427 5.7694855
23.388037 1.9286425 5.5252104
23.689024 1.8492544 5.7804422
24.256384 1.8201276 5.7790027
24.759903 1.8109131 5.795156
25.301544 1.8078249 5.842802
25.756224 1.754105 5.7728906
4.2598209 2.2073014 5.7682228
4.76967 2.1691148 5.7701917
14.47703 2.3540294 5.8079672
14.55703 2.2618747 5.7312112
17.463709 2.006444 5.5017323
17.866377 2.0088348 5.5275755
18.359509 2.0322211 5.696918
18.546228 2.153595 5.8996544
23.55505 2.0940418 5.8543944
4.1843162 2.7492323 5.7696333
4.8582759 2.5481133 5.9499335
14.669727 2.7567854 5.7452531
4.1899872 3.2543147 5.7485657
4.82687 3.3146234 5.9207745
14.685569 3.2779024 5.760757
4.1990428 3.7585597 5.7763977
4.7839293 3.6069534 5.9112067
14.692861 3.7659478 5.7413363
4.2033067 4.2558656 5.7722659
4.7692218 4.1864667 5.8926506
14.696802 4.2494979 5.7415652
-8.6513567 4.661541 5.6448069
4.2098613 4.7635922 5.7499447
14.702759 4.7661676 5.7492652
-4.060081 5.3875847 5.6114821
-3.8184338 5.3814049 5.7300158
-3.4145038 5.3357501 5.6293545
-2.8788841 5.4225388 5.6622963
4.2142735 5.2471237 5.7448182
14.699466 5.2559562 5.788239
-4.053678 5.6678457 5.6224942
-3.7381616 5.6500769 5.7304296
-3.2447634 5.628264 5.7339206
-2.8952978 5.6003923 5.7411075
4.2195711 5.758997 5.7590151
5.9837556 5.7087564 5.9699211
6.2803087 5.7360554 5.9313874
6.5247726 5.8128839 5.9525237
14.462691 5.9459305 5.7157574
14.667747 5.7568941 5.7381883
4.2237434 6.2670188 5.7840967
6.1220207 6.1103034 5.9506412
14.479243 6.0621243 5.6679568
14.650476 6.2200952 5.7959352
-6.2114744 6.9739099 5.89362
-5.9180288 6.9681854 5.9726553
4.2479887 6.7242556 5.789824
14.790684 6.6073413 5.9021888
-6.3534207 7.0661969 5.7842054
-5.9047337 7.0548744 5.8879948
4.2831831 7.2114944 5.8900056
4.2568879 7.7408395 5.7690454
4.6030064 7.913806 5.7741842
5.4197636 7.935884 5.8020411
5.727735 7.8654189 5.7724595
9.3038006 7.9890265 5.7223086
4.2537971 8.2743111 5.744235
4.8485994 8.1011086 5.7772417
5.2011819 8.1143818 5.7463102
5.8934851 8.07866 5.8699417
6.2314858 8.2954645 5.7606306
6.727921 8.3261929 5.7458792
7.2495899 8.3698788 5.7965369
7.7492805 8.4047575 5.827352
8.2751312 8.3654146 5.7865663
8.7089825 8.1250525 5.738811
9.2518654 8.079442 5.7450676
9.7651701 8.0887451 5.7421327
10.27285 8.0590229 5.7571673
10.76138 8.069911 5.757019
11.241032 8.2385674 5.7665772
11.731025 8.3592081 5.7971263
12.277032 8.3393583 5.8292685
12.719334 8.2402248 5.8485098
13.241064 8.2376204 5.9240794
13.56225 8.1749153 5.9840612
-7.0721135 8.9271774 5.7545128
-6.6700859 8.919383 5.6939054
-6.4186625 8.8950396 5.7817044
3.3029172 8.9214172 5.613265
3.845525 8.8440161 5.6904817
4.2309909 8.724823 5.776608
7.3840461 8.5305347 5.5970411
7.661025 8.5307264 5.6130843
8.1817493 8.5203228 5.5652776
11.464349 8.5061493 5.6619883
11.700922 8.5074644 5.6273656
-7.055151 9.053607 5.8100224
-6.8529019 9.1246471 5.7727833
3.3688333 9.1162987 5.8335972
3.7435694 9.140893 5.8053637
4.1538696 9.1510792 5.8064022
-7.0161514 9.6976862 5.9809804
-6.9968696 9.5873623 5.8567872
4.2776747 9.7902756 5.6908607
4.2626486 10.451133 5.7308254
4.3102064 11.974833 5.9283738
4.3117394 12.054743 5.8185182
-7.8977365 14.54424 5.9801817
-8.1892061 15.294255 5.5498686
-7.9076533 15.283173 5.6578207
-12.194747 -12.205508 6.2706409
-11.902539 -12.352332 6.2962289
-12.537849 -11.560247 6.3016124
-12.273678 -11.738889 6.3149204
-12.673938 -11.288943 6.2650733
14.176763 -11.032738 6.0499907
13.464182 -10.706284 6.2769327
13.721333 -10.634708 6.202209
14.09108 -10.771996 6.086009
15.798292 -10.679237 6.0847955
13.756167 -10.26611 6.2422233
14.744905 -10.41048 6.0282693
15.781404 -10.378613 6.0355997
12.997643 -9.5049305 6.4998369
13.347606 -9.6458979 6.312993
13.715114 -9.7855597 6.2042542
14.345139 -9.8183832 6.001348
-11.693243 -9.3286877 6.0973849
13.334468 -9.3011608 6.3614769
13.683063 -9.2258205 6.2231364
23.970394 -9.0406513 6.4758716
24.262764 -9.1354189 6.2772341
24.601913 -9.0534229 6.2250857
25.323101 -9.0824623 6.2140713
-11.503994 -8.7328596 6.1956763
12.887279 -8.607954 6.2829952
13.2922 -8.7380991 6.2487454
13.675939 -8.8113308 6.1419907
23.905098 -8.5814114 6.3757167
24.270432 -8.7380972 6.2735653
24.619558 -8.8299809 6.2126212
-11.521021 -8.0693922 6.1864934
-11.368879 -8.2723312 6.2649369
12.229965 -8.0349693 6.3776331
12.864405 -8.2288532 6.3128405
13.21651 -8.2235584 6.2050471
13.71867 -8.1485033 6.2555041
14.049755 -8.0382633 6.1772742
23.969185 -8.4150934 6.4296203
24.293961 -8.2633276 6.2678494
24.620373 -8.1874266 6.1575832
12.317828 -7.7630901 6.4528933
12.721423 -7.8307538 6.3921504
13.228707 -7.885498 6.2084432
13.745898 -7.7345042 6.2600384
14.206097 -7.703898 6.2623906
14.538191 -7.7557735 6.4373565
15.321111 -7.6865458 6.2577448
15.543171 -7.7832541 6.3791199
23.948849 -7.6227303 6.434454
24.300087 -7.7356238 6.3395653
24.626829 -7.7511506 6.1403193
-11.120712 -7.1635056 6.0387239
-8.5449839 -7.0087547 6.0536165
12.328109 -7.3646507 6.4737878
12.575498 -7.311924 6.4556999
13.871748 -7.4395308 6.2742052
14.188321 -7.4125476 6.2876496
14.943936 -7.1745524 6.134263
15.210104 -7.1983457 6.2737751
15.716592 -7.0157528 6.2659397
16.125206 -7.0535054 6.1403956
23.996077 -7.3098168 6.4328856
24.264626 -7.2174697 6.3401895
24.726282 -7.305799 6.1398468
-10.287687 -6.8509116 6.1953821
-9.2560501 -6.6175117 6.0929065
-8.7704992 -6.6459007 6.1168795
-8.4021301 -6.6951947 6.1802874
14.896894 -6.9193816 6.0923147
15.301273 -6.7750425 6.2483439
15.740093 -6.7787752 6.2251086
16.162336 -6.7324662 6.3159847
16.752913 -6.5811515 6.3489966
17.152126 -6.6180964 6.4578314
24.260452 -6.7615204 6.2474737
24.671219 -6.7188783 6.1491995
25.911932 -6.6006675 6.1942348
-9.654211 -6.3282962 6.170042
-9.1828432 -6.1630206 6.2499185
-8.7748508 -6.3031411 6.2549906
-8.4362469 -6.4762535 6.2712097
13.906023 -6.0411563 6.240262
14.05916 -6.1137838 6.2216864
14.917953 -6.3334074 6.1915159
15.261994 -6.3517785 6.1956015
15.579185 -6.4032474 6.4069872
16.386047 -6.2629676 6.2980695
16.784004 -6.2812872 6.3091393
17.059916 -6.2355828 6.2742448
17.828539 -6.1702209 6.4591665
18.07711 -6.1076474 6.3067436
23.973421 -6.2367659 6.4602222
24.262529 -6.3217969 6.3255963
24.63406 -6.4305935 6.1918449
25.865847 -6.3691049 6.1373825
26.115845 -6.2073836 6.2679882
-10.118387 -5.8437114 6.487689
-9.6888771 -5.7753549 6.3128695
-9.257287 -5.8481102 6.3934221
-8.7496691 -5.8838754 6.430294
13.423614 -5.6056309 6.1272097
13.649148 -5.7877932 6.0865293
14.18834 -5.7361174 6.0164127
15.415312 -5.5083027 6.0144997
15.835153 -5.6665525 6.1715188
16.245537 -5.8544407 6.3395844
16.579079 -5.9830151 6.4943371
17.414469 -5.781249 6.2557526
17.657442 -5.6885686 6.3627295
23.621817 -5.6032853 6.444314
-11.20359 -5.197506 6.3491058
-10.808384 -5.1307297 6.0089507
-10.212676 -5.0971761 6.149168
-9.7184429 -5.259779 6.2678328
-9.3125029 -5.2405238 6.3514647
12.881359 -5.1496301 6.2379541
13.176213 -5.3451133 6.2092805
13.506331 -5.4810667 6.0062222
15.279 -5.186316 6.1321297
15.761019 -5.189446 6.2740355
17.327028 -5.2455893 6.3881221
17.704874 -5.3835721 6.3686533
18.027239 -5.124795 6.3411474
23.42144 -5.3330851 6.4520659
23.537136 -5.431201 6.4794307
-10.830147 -4.8594317 6.0276766
-10.123785 -4.6232476 6.1246715
-9.8297014 -4.6512117 6.2327056
-9.4186516 -4.9022923 6.1625752
12.813671 -4.7593341 6.2171507
13.088545 -4.6721554 6.2865314
15.355749 -4.5030999 6.0095024
-10.176048 -4.163156 6.1882496
-9.8304472 -4.3116746 6.2906718
12.923358 -4.2742381 6.1830702
13.147088 -4.2500834 6.3197241
15.552002 -4.4463282 6.3109865
-11.330975 -3.6477294 6.2336645
-10.675715 -3.7473142 6.1723824
-10.269794 -3.7606864 6.2629275
-9.9457006 -3.7630973 6.3172026
12.927971 -3.8634861 6.1013379
13.257744 -3.7473445 6.2714968
13.659474 -3.6871278 6.3716469
14.102108 -3.519489 6.4335828
-11.263736 -3.3851891 6.2840877
-10.296839 -3.4571605 6.4041748
13.365856 -3.3445518 6.1410155
13.758294 -3.2868309 6.2294946
14.207175 -3.1558056 6.2776685
14.769315 -3.0447493 6.1591387
15.199873 -3.0422492 6.3462691
18.201012 -3.1579216 6.4389486
13.888912 -2.9356651 6.1124392
14.280652 -2.865314 6.2114906
14.738361 -2.7752383 6.2666402
15.206271 -2.7670438 6.3139796
15.600852 -2.7017357 6.3637714
18.280005 -2.8070898 6.4040546
18.611431 -2.7280562 6.4399295
15.195276 -2.4966152 6.3677316
18.761835 -2.3831403 6.4993591
-7.784883 -0.50873458 6.1383209
-7.1849604 -0.65118164 6.2550197
-6.9441876 -0.5432961 6.2814317
-8.3516903 -0.16218197 6.078208
-7.8749514 -0.26159555 6.2700992
-7.1324339 -0.34576672 6.3219213
-6.9882932 -0.43959439 6.4357009
-8.2182751 0.10478473 6.140471
4.3001032 1.9694467 6.2618742
4.6453099 1.9687594 6.2560363
14.471834 1.9289831 6.2120857
14.748235 1.9169036 6.2236066
15.268081 1.9430426 6.229393
15.753398 1.9287257 6.2675815
18.481689 1.9487641 6.084506
18.734915 1.8987747 6.2502837
19.256325 1.8922982 6.2551317
19.768711 1.8851805 6.2530584
20.264757 1.8782784 6.2416439
20.696335 1.8695205 6.2361822
23.496389 1.928491 6.2582078
23.700758 1.8459789 6.2736349
24.22855 1.8222809 6.2381282
24.768015 1.8201927 6.280365
25.234131 1.8063234 6.2409248
25.735603 1.7661437 6.2522974
4.2627096 2.2101674 6.2464571
4.7957225 2.2159963 6.259634
14.457058 2.2059691 6.248837
14.550078 2.3532586 6.2339416
15.028608 2.1159136 6.3011413
15.86733 2.0364089 6.1569963
18.482538 2.0561664 6.451261
18.565367 2.2310483 6.2636404
23.575426 2.1393814 6.2462764
4.1844573 2.7628837 6.2767682
4.7933373 2.7136545 6.2915998
14.495628 2.5047805 6.4645462
14.665657 2.7536602 6.2567606
18.567604 2.5436583 6.4289002
23.929409 2.526885 6.4077883
4.1895947 3.2646682 6.2502017
4.7519565 3.2366419 6.3630047
14.686447 3.2609751 6.2472172
4.1983147 3.7615733 6.259614
4.7679615 3.7787836 6.264482
14.694375 3.746253 6.2318587
-8.5647755 4.4645538 6.3753929
4.2053366 4.266562 6.2487154
4.7703657 4.2386928 6.2726889
14.698785 4.2453728 6.2378101
4.2107286 4.7617025 6.2668314
4.7755518 4.5913911 6.381856
14.703982 4.7621751 6.2261119
-3.925632 5.2063055 6.0633583
4.2158651 5.2802362 6.2440972
14.711323 5.2338476 6.2666993
-3.6499276 5.5198941 6.0461936
-3.4914331 5.6126509 6.001914
4.2171288 5.7421737 6.2891693
4.7813807 5.9656444 6.4808826
5.8252754 5.7791557 6.1860409
6.2191148 5.7199826 6.1302185
6.5502172 5.6795683 6.0270071
14.669901 5.763268 6.2362394
4.2212558 6.2265959 6.2657146
5.7426457 6.3180375 6.3302355
6.1605835 6.1986084 6.1401148
14.682779 6.2481775 6.239224
-6.2879825 6.9491863 6.2703824
-5.6675959 6.9065223 6.2070904
-5.3891053 6.8044615 6.1843958
4.2272568 6.7400956 6.2567
5.4849687 6.8573112 6.4100008
5.7301898 6.7299752 6.3846893
14.759745 6.7511053 6.2390461
-6.2591228 7.122345 6.2609239
-5.7973433 7.0508351 6.2945104
-5.3980603 7.0180078 6.0999532
4.2348289 7.2375317 6.2366848
5.477283 7.2366443 6.4514289
5.7349143 7.2571325 6.4241486
14.766597 7.2250228 6.3083692
4.2421393 7.7528219 6.2531662
4.7046509 7.9409513 6.2139311
5.4303732 7.8302374 6.3143282
5.7276421 7.7837219 6.3208828
10.385282 7.9460273 6.1082792
10.568041 7.9787016 6.0198798
13.927291 7.8777604 6.2910795
14.225913 7.8066821 6.319829
14.744171 7.7896919 6.4153247
4.253221 8.2054787 6.3193316
4.8746328 8.1070433 6.2348361
5.2017198 8.1258383 6.2662897
5.9596434 8.0868149 6.2739677
6.2391796 8.3114491 6.2790966
6.7513108 8.3370886 6.2593355
7.2373672 8.3313675 6.2674098
7.7483988 8.3214655 6.2411728
8.2380104 8.3217907 6.2447519
8.7167711 8.1397295 6.2533541
9.2341919 8.0927525 6.2365036
9.7624874 8.0884066 6.2627902
10.258154 8.0806074 6.2666678
10.749732 8.0745173 6.2670417
11.244216 8.2024956 6.2536483
11.746866 8.2389526 6.2432437
12.248652 8.2401333 6.2445998
12.743047 8.2370148 6.2632456
13.239134 8.2395411 6.2483788
13.676117 8.1211023 6.2765903
-7.0688362 8.928669 6.1990409
-6.9501138 8.9220886 6.3586149
-6.3034849 8.7850103 6.0355387
3.9078341 8.8943243 6.1052165
4.2191978 8.7974262 6.2196798
-7.0306416 9.0022907 6.1697512
-6.9069195 9.1857595 6.2415466
-6.2850485 9.155262 6.3205676
3.3351228 9.2919827 6.2059455
3.7769518 9.3192339 6.2422562
4.1486845 9.1293707 6.2803636
3.338129 9.5686455 6.3847332
3.7233915 9.586937 6.3332334
4.2034802 10.027731 6.4664464
4.3071628 11.682547 6.411664
4.3145595 12.28806 6.272191
4.3206172 12.840561 6.2805276
4.3429699 13.320129 6.4877691
-7.6788092 14.779468 6.0869179
-12.139453 -12.10202 6.6113443
-11.805981 -12.100315 6.7869701
-12.217834 -11.738864 6.7740202
-11.956394 -11.770434 6.7888708
-12.640282 -11.115251 6.6860619
-12.30298 -11.320113 6.7723331
-13.066053 -10.97729 6.5228195
-12.75859 -10.826236 6.7899981
-12.196152 -10.855591 6.9389267
13.416008 -10.603918 6.5276041
13.675938 -10.532114 6.5828466
-12.804928 -10.428511 6.9313831
13.730672 -10.251959 6.6179028
13.44076 -9.8005924 6.5163889
13.838416 -9.6992588 6.7997594
14.034752 -9.8041058 6.8247066
-11.995335 -9.3143139 6.9648833
13.252158 -9.3018456 6.5942111
13.706812 -9.318058 6.6580124
23.942299 -9.0288515 6.5814791
12.851946 -8.6657906 6.5644426
13.225553 -8.7477808 6.7142248
13.874557 -8.7039356 6.956193
14.090498 -8.607481 6.8641448
23.903612 -8.7249107 6.7429242
24.110609 -8.6958427 6.6910176
-11.507168 -8.2478027 6.6089287
-11.444534 -8.1862984 6.5688801
11.926527 -8.1029415 6.7952447
12.157479 -8.140336 6.8462138
12.893038 -8.2477627 6.5798297
13.253798 -8.1723461 6.6732678
13.776971 -8.2129555 6.7371774
14.110281 -8.2036896 6.8334131
14.866589 -8.1202002 6.6139374
15.351487 -8.0568523 6.7226067
15.648091 -8.098073 6.6885529
23.875196 -8.3555727 6.7178278
24.121191 -8.2168226 6.7554564
-11.372715 -7.7703171 6.6543493
11.881018 -7.7246122 6.8326364
12.233318 -7.7487717 6.7197142
12.772579 -7.6934805 6.6649241
13.262523 -7.7382812 6.7074251
13.775137 -7.7603173 6.7771964
14.225566 -7.7312894 6.7676954
14.724872 -7.7150965 6.7692909
15.250008 -7.7097197 6.7184763
15.636351 -7.8029351 6.6226568
16.060154 -7.9978442 6.7453213
23.909222 -7.5976844 6.767786
24.137524 -7.7564111 6.7237668
-9.7010794 -7.149076 6.815702
11.890943 -7.307622 6.9000449
12.263943 -7.2561989 6.7494602
12.75298 -7.2210417 6.7003736
13.197159 -7.2601023 6.8568254
13.867516 -7.4146757 6.8668289
14.263131 -7.3152065 6.8444338
14.741442 -7.4016256 6.8308387
15.294617 -7.2624764 6.7531319
15.596161 -7.1682682 6.8453584
16.981722 -7.0626574 6.8111653
17.256966 -7.1037459 6.9096751
23.924603 -7.2870474 6.7673588
24.082815 -7.2092242 6.7300749
-9.6489935 -6.8257523 6.8160849
-9.1347122 -6.6719017 6.7024617
-8.9621325 -6.6846161 6.6187482
12.342752 -6.8462415 6.9020581
12.70948 -6.7962117 6.8702197
13.151118 -6.8189821 6.9454937
13.791101 -6.8205471 6.9484057
14.057682 -6.9280691 6.9951124
14.791541 -6.6455092 6.9079876
15.336651 -6.7968965 6.723712
15.668105 -6.7530141 6.7437978
16.319977 -6.7153788 6.7477198
16.744225 -6.6911826 6.7620101
17.133701 -6.8472209 6.8570471
18.362858 -6.5677533 6.9968042
23.359552 -6.6517396 6.8989434
23.768927 -6.6334066 6.8805227
24.191521 -6.743607 6.751915
