1591
-7.2760816 -9.0242434 1.3580709
-7.1944532 -8.8676786 1.2642469
-2.7205286 -8.8172092 1.2577504
-7.2342496 -8.6370411 1.4442693
-7.1799178 -8.5159225 1.374846
-2.7924895 -8.7609301 1.248992
-7.2088537 -8.2851696 1.5380092
-7.1063104 -8.1837654 1.4070801
-2.9878161 -8.1827755 1.2208698
2.5576239 -8.3409863 1.2907584
6.6193447 -8.1955261 1.3145489
-7.0125265 -7.8001795 1.4178779
-4.5480289 -7.6282411 1.3191433
6.5890307 -7.9065237 1.3335328
-6.9626074 -7.4032845 1.3931384
-6.9208312 -7.0139132 1.4111151
-6.6670055 -6.8332853 1.3909864
-3.2008667 -7.089962 1.3181826
-6.8570004 -6.5928164 1.405165
-6.7383604 -6.5926142 1.3994201
-6.3431888 -6.6848254 1.2667551
-1.0205975 -6.5004349 1.3148623
0.34430063 -6.4737921 1.252817
-6.8204184 -6.278481 1.4013641
-6.7684264 -6.1242743 1.3999605
-3.6827655 -6.2280049 1.3306684
0.29002714 -6.3738899 1.2172253
16.793619 -6.225235 1.5212712
16.964027 -6.0924387 1.4147772
25.173933 -6.0439649 1.5547994
25.381765 -6.1310716 1.433442
-6.8043175 -5.9638863 1.467675
-6.7364097 -5.7959776 1.4094528
16.914616 -5.7843885 1.4155872
25.320242 -5.7896552 1.4258119
-6.6977105 -5.4464378 1.4042587
17.067991 -5.5296164 1.3800381
25.448921 -5.5046759 1.4275249
-6.6430464 -5.0484262 1.3922098
-6.5815821 -4.6207132 1.4169872
-8.4456139 -4.0628629 1.4970287
-8.3187637 -4.1975532 1.3731745
-7.0330272 -4.3432388 1.5802655
-0.89583844 -4.0674171 1.4614863
-1.1659222 -3.6450748 1.204664
-1.1480632 -3.483963 1.2355698
-1.8101954 -2.0053191 1.5443013
-1.3725612 -2.1715629 1.4032836
15.889319 -2.1147056 1.2991387
-1.7160536 -1.7495205 1.4641871
-1.4743141 -1.7958506 1.3662559
15.854021 -1.8182818 1.274605
-1.7968097 -1.5910542 1.3119925
-1.4695793 -1.4322264 1.3665679
-1.1338751 -1.2704861 1.4506361
15.918701 -1.4378824 1.3387357
-1.0855041 -1.0806812 1.3270271
15.93327 -1.158736 1.2790985
25.977524 -0.40779072 1.2896146
26.111729 -0.4930048 1.2327617
17.400194 -0.10282314 1.2017415
25.9652 -0.19719368 1.3120266
26.055536 -0.17420745 1.3399242
13.288054 0.27481103 1.2072062
17.155142 0.35421991 1.2312438
17.302343 0.21726373 1.2512238
21.526091 0.36058113 1.3320838
26.196421 0.048189659 1.3272169
26.475258 0.20473251 1.2733053
26.855373 0.39254224 1.2682563
11.529457 0.41725099 1.2439859
17.199657 0.44649541 1.2785023
17.396721 0.57717007 1.2924639
17.799072 0.66463155 1.3511137
20.284428 0.76991218 1.346735
20.604668 0.74720705 1.413102
21.012148 0.70592296 1.4226835
21.411861 0.59800553 1.4117283
26.917604 0.51302314 1.2499905
17.798616 1.1173434 1.2698116
18.221685 1.0950941 1.269822
18.571882 1.0878118 1.3216276
18.953453 0.96626049 1.3478638
19.316158 1.0159302 1.3833776
19.923531 0.95528668 1.4331471
20.147326 0.92891502 1.4849656
20.700531 0.81631088 1.5732541
4.6401463 1.5675224 1.4635999
17.442377 1.2614719 1.237456
17.663374 1.2500399 1.3598061
20.281874 1.3686603 1.5351002
20.510139 1.4725809 1.3662198
4.3027039 1.9806155 1.4165837
4.6095395 1.9481951 1.4200032
5.0216842 1.9680129 1.3918046
5.4036336 1.9566009 1.3932961
5.7478147 1.9584917 1.4215606
6.6045594 1.7761413 1.2666535
6.9078941 1.7433202 1.2319765
7.9108162 1.9582299 1.2124853
8.1453323 1.8587044 1.2193234
8.6227112 1.8058126 1.3109177
8.9892197 1.782213 1.3290737
9.3753834 1.9129149 1.336814
9.8078604 1.9429941 1.3818244
10.210313 1.9359633 1.3795872
10.575677 1.9265882 1.3915285
10.985881 1.9196224 1.3891617
11.392111 1.9242985 1.4258096
11.808688 1.9201084 1.4028417
12.185799 1.9132696 1.402254
12.585458 1.9187809 1.4048547
12.863785 1.9703287 1.4569577
13.537306 1.9244568 1.4037919
13.806551 1.8727305 1.4037061
14.206157 1.873167 1.4329814
14.640024 1.8670636 1.4633732
14.992312 1.8631511 1.4639132
15.351565 1.8630738 1.4654565
15.814524 1.8577743 1.4529773
16.207937 1.8321878 1.4446472
16.571566 1.831852 1.4444541
16.949713 1.8666496 1.4377301
17.404844 1.8606647 1.4177319
17.819775 1.8666759 1.4394721
18.257586 1.8618702 1.4009759
18.585018 1.844348 1.4420761
18.961351 1.8293227 1.4758208
19.408705 1.8238696 1.5064681
19.717026 1.8034649 1.5761827
20.249001 1.8054579 1.5633415
20.474926 1.6799383 1.5768015
-0.074095577 2.3453765 1.2878116
0.22283235 2.2980266 1.297117
0.45824248 2.3226352 1.3359096
4.194066 2.2265487 1.3995326
5.9418969 2.0808523 1.3129337
6.1303368 2.1084921 1.4143896
7.5948772 2.1850009 1.2203854
7.8041921 2.2280443 1.2385036
8.2275352 2.197896 1.2891635
8.544507 2.3007233 1.4216193
8.9915972 2.2520144 1.4399295
9.3710699 2.1898315 1.4620918
9.7090626 2.1996512 1.5517418
11.281073 2.0210485 1.5791208
11.972863 2.0685115 1.5984964
12.263968 2.0593555 1.5475498
12.513648 2.0581484 1.56671
13.071284 2.0686405 1.4643064
13.486501 2.1800346 1.4230126
18.162079 2.0268574 1.476099
18.499369 2.0953302 1.5833375
-0.10122596 2.5925462 1.3881398
0.1887438 2.5742588 1.4058958
0.52379411 2.6384423 1.4346673
0.91525775 2.7153814 1.44129
1.4950403 2.6944005 1.3309487
1.808623 2.6772256 1.3742162
2.1633508 2.6503632 1.418622
2.5285821 2.7601609 1.3691781
3.139915 2.7778544 1.275557
3.4446516 2.6849358 1.3921839
3.8178246 2.6163864 1.4206158
4.1338258 2.5989606 1.3920228
7.522048 2.6784375 1.2525719
7.8686786 2.6273746 1.3460174
8.2141333 2.5998762 1.4216564
8.5409708 2.5298817 1.4944024
9.062767 2.4393194 1.57335
9.3575821 2.4615853 1.5801198
9.7688141 2.4120307 1.5827667
-0.46964392 3.1015203 1.4264624
-0.26344058 3.0004675 1.2920288
0.28246439 3.0190399 1.2960994
0.5665738 2.9544401 1.371338
0.99387753 2.962538 1.3991113
1.389802 3.0085552 1.4185823
1.7520174 2.9766557 1.454852
2.2099762 2.9559309 1.3822477
2.6054103 3.0063095 1.3817222
2.9964857 3.0351682 1.3595551
3.4170609 3.0043256 1.3840997
3.7855959 2.9320979 1.3360605
4.1338925 2.9268377 1.3749267
7.1329751 3.1224439 1.309983
7.3550076 3.050612 1.3103122
7.8083758 3.0153019 1.4258804
8.1767445 2.9643066 1.5086004
8.4179544 2.858623 1.5599866
-0.30585229 3.3192565 1.287518
0.49652749 3.3149242 1.3660986
0.98616147 3.2468975 1.5373881
1.4147612 3.249378 1.264937
1.7839533 3.2854767 1.4778854
2.1604581 3.3373125 1.3237256
2.6471517 3.4300284 1.2320853
2.9982069 3.3765461 1.3719025
3.3733547 3.3993487 1.3633239
3.6724806 3.3619123 1.2959247
4.1372619 3.2372537 1.3513788
7.1255913 3.3717575 1.3726406
7.3661056 3.4479425 1.4393721
7.6544638 3.3641684 1.4787997
2.378828 3.7272711 1.2785181
2.5926011 3.7141876 1.2727991
3.1073775 3.6374788 1.4387606
3.4486394 3.7067354 1.3506516
3.6787851 3.6705956 1.3223202
4.1604624 3.6877418 1.3179328
7.012692 3.9804325 1.3706146
7.5743732 3.7081478 1.5501679
7.6761112 3.7520823 1.5043387
6.7923899 4.2234221 1.4344143
6.9854889 4.1815701 1.4546293
7.5406566 4.2724047 1.5376382
-4.4405165 4.5427032 1.5256754
5.7671862 4.6800823 1.5963774
7.0362196 4.4961643 1.5416172
7.5268264 4.6518154 1.5303638
7.6264381 4.6607962 1.5945282
-4.9255395 5.1339746 1.3805951
-4.7208714 4.9676304 1.247774
7.4679027 4.9074764 1.5324931
-5.2171974 5.3652248 1.552738
-4.9956799 5.3986988 1.3943311
6.7111702 5.3867283 1.5510771
7.1832428 5.2851591 1.5852706
7.372107 5.2664003 1.5674121
-5.2934289 5.8353324 1.4505876
-4.9420137 5.7677226 1.4289377
-4.7277746 5.8733592 1.373596
-4.7267613 6.0041237 1.297173
-6.6523108 8.3651295 1.2344044
-6.8269815 8.5561876 1.3903105
-6.6107483 8.6359978 1.3523558
-6.2022872 8.6352806 1.3406875
-5.760603 8.5947237 1.3295205
-5.4309502 8.6517925 1.4385477
-6.8521185 8.9973822 1.4971777
-6.6296768 8.92243 1.4128637
-6.1027784 8.9989824 1.3955313
-5.7602177 8.9317513 1.3679653
-5.4039168 8.9559383 1.3952355
-5.1258278 9.0650368 1.5198685
-6.8205719 9.3213911 1.575423
-6.5587311 9.4260931 1.5230633
-5.7032475 9.4462147 1.2974241
-5.3730078 9.3608913 1.3806442
-5.086246 9.333024 1.5318321
-4.570735 9.4093742 1.3430252
-4.3769417 9.3010969 1.4397939
-5.7586212 9.7392254 1.2957869
-5.3684483 9.8549128 1.408103
-5.1005812 9.7778597 1.4383835
-4.5740595 9.8881712 1.2357529
-5.6262398 10.179267 1.4426382
-5.4208317 10.046318 1.3472679
-5.1138167 10.023306 1.5000775
-4.5969286 10.22636 1.381848
-4.8409281 10.521328 1.4132189
-4.6153564 10.549068 1.4137706
-4.321382 10.472673 1.3230088
-4.9034801 10.831745 1.5942352
-4.5381212 11.419389 1.4110054
-4.1015773 11.71594 1.2894521
-4.8798113 14.737689 1.2547674
-7.2354465 -8.5128384 1.637211
-7.2208548 -8.3258572 1.6980629
-7.079185 -8.1187029 1.7170006
-6.998908 -7.7770872 1.7333809
-6.9521179 -7.3893561 1.7171419
-6.8991971 -6.9846182 1.7084694
16.391754 -7.1951241 1.9414358
-6.8447971 -6.6137862 1.7584049
-6.7816539 -6.4669609 1.7051748
16.88446 -6.4925575 1.9468682
-6.8209891 -6.2685304 1.7332098
-6.7667313 -6.1678591 1.7340074
16.785475 -6.0997653 1.8704882
16.881136 -6.1888728 1.7817622
25.181923 -6.1347332 1.7444358
25.325897 -6.1096458 1.797973
-6.7227941 -5.7532115 1.7507708
16.795044 -5.9427047 1.9018834
16.931906 -5.7591519 1.7799345
25.190929 -5.8743834 1.8578267
25.267754 -5.7882729 1.7815108
-6.6641383 -5.3920126 1.7759206
17.127359 -5.5800657 1.7152236
25.44346 -5.507967 1.8117665
25.607437 -5.4040017 1.6641352
-6.6279993 -4.9870729 1.7847854
-7.2458177 -4.5414171 1.908796
-6.6492362 -4.617774 1.7764635
-8.4086266 -4.1867971 1.7390811
-8.3093328 -4.2397761 1.6583159
-1.3156221 -2.1291614 1.7073435
-1.5154605 -1.6611481 1.6604009
-1.4926682 -1.5476868 1.6640482
19.972101 0.75304353 1.9504565
20.375559 0.70027268 1.9777714
20.653135 0.76889586 1.6706873
20.977716 0.74910355 1.7284759
21.259384 0.70775187 1.6616337
19.275566 1.1206546 1.6511437
19.921377 0.99252498 1.7270722
20.171448 0.98251212 1.814909
20.599113 0.86567658 1.8073074
20.925615 0.86293906 1.8981819
20.276466 1.4058441 1.7917308
20.454758 1.5809513 1.8231022
4.3049793 1.9736472 1.8163552
4.5894966 1.9551444 1.7942474
5.012342 1.9721501 1.7729253
5.3790755 1.9651664 1.7926149
5.7785416 1.9626063 1.7873368
6.0277386 1.9720802 1.8369634
9.5395842 1.8051708 1.8434498
9.8091955 1.8517627 1.8225293
10.197001 1.9523484 1.7698857
10.595027 1.940879 1.7414449
10.994393 1.9312549 1.6551327
11.413935 1.9478216 1.6335913
11.84911 1.9432458 1.6627276
12.308457 1.8807566 1.6144581
12.569579 1.9164711 1.6781127
13.023229 1.9391109 1.6891074
13.495559 1.918527 1.8106344
13.793594 1.8785212 1.7932745
14.20382 1.8755038 1.7934663
14.578768 1.8673259 1.7782695
15.011739 1.8698554 1.8052125
15.408854 1.8652847 1.8067611
15.802361 1.8628689 1.8052771
16.197538 1.8081409 1.7357339
16.566307 1.7979465 1.6939658
16.948156 1.7456105 1.6785501
17.288654 1.9464545 1.7885083
18.091311 1.9866658 1.6941564
18.604929 1.8652334 1.7996227
18.989002 1.8308161 1.809734
19.381361 1.8218042 1.7949116
19.802086 1.8109152 1.7935928
20.204782 1.7937936 1.8042871
20.546255 1.7398227 1.8368641
20.819828 1.7623889 1.8771336
2.4145455 2.3777218 1.8237501
4.1979656 2.2430234 1.8205274
5.9774547 2.1687398 1.6032091
6.0883923 2.1395018 1.750012
8.516921 2.3747463 1.6169438
9.0933371 2.377763 1.6440295
9.5677814 2.1782575 1.7327998
9.7954397 2.2006452 1.7795962
10.252446 2.0950527 1.8901715
10.644225 2.0856838 1.8606213
10.997474 2.2274551 1.8905708
11.407856 2.1285346 1.6900256
11.823331 2.2390001 1.7151949
12.229871 2.2748578 1.7788186
12.601873 2.2266538 1.8078028
13.016934 2.1415398 1.7992655
13.460293 2.2281709 1.8196414
16.576525 2.0157132 1.9815876
17.039116 2.0225837 1.9746878
17.876186 2.1461377 1.9717495
18.268734 2.1654375 1.9707025
18.533554 2.1794226 1.8123212
0.25513965 2.6271088 1.8000783
0.58870655 2.6316478 1.8321887
0.89910287 2.7005908 1.8224591
1.8551952 2.7079105 1.7435726
2.2238209 2.6337287 1.7395995
2.4762328 2.6237655 1.7349604
3.5058057 2.6553531 1.6677362
3.7906978 2.6528268 1.7281741
4.1567073 2.6311765 1.7511482
8.5890808 2.6358581 1.6929356
9.0258398 2.6139102 1.7189065
9.3972301 2.6476371 1.7886307
9.7926245 2.631664 1.8263863
10.031218 2.5297575 1.8223476
10.893719 2.4368401 1.9711194
11.339519 2.4892888 1.9352949
12.133722 2.4420428 1.9193134
13.572167 2.4021745 1.9149368
13.641973 2.4543176 1.6717836
-0.14704503 3.0745645 1.7498207
0.087348938 2.9256485 1.7998028
0.60814369 2.9636724 1.7808738
1.0113956 2.9620039 1.7552286
1.4609942 3.0471096 1.7699404
1.6980926 2.9589787 1.8024486
2.2828074 3.0423715 1.6996644
2.5615544 3.0277069 1.6355379
2.9798665 3.1403089 1.603575
3.5408001 3.0902689 1.6826466
3.8189402 3.0183227 1.7821953
4.1708603 2.9063649 1.8732452
7.9153271 3.0916896 1.7086427
8.2655478 3.0639756 1.6601329
8.6131811 3.0220635 1.771412
9.0046387 3.0021491 1.9023199
9.2944527 2.9321108 1.9564178
9.7424459 2.8457587 1.7966731
0.62549508 3.3360927 1.7607466
0.93154824 3.3223124 1.6549546
1.5177549 3.2633348 1.7960718
1.699865 3.3336487 1.7853584
2.2726593 3.3483806 1.7762324
2.6014986 3.340905 1.7475849
2.9389563 3.3773143 1.7216231
3.554462 3.2102807 1.6580695
3.856571 3.2672124 1.7927111
4.0919051 3.3825521 1.9322627
7.8011765 3.3750677 1.7107124
8.2057657 3.3901238 1.7640883
8.5714645 3.4075613 1.8399551
8.8648071 3.3935244 1.9581171
9.2950945 3.2927969 1.9238899
14.716001 3.4859235 1.9753627
3.5937047 3.6871564 1.6123283
3.834996 3.9009023 1.6164646
4.2155275 3.9854913 1.7274244
7.7854171 3.8503537 1.7209129
8.2099819 3.7585835 1.8815989
8.6009493 3.668268 1.9724562
14.680117 3.906548 1.9826953
4.2177382 4.0646534 1.7518181
7.4969468 4.2613287 1.6468341
7.7872047 4.1769366 1.8354794
8.0374584 4.2793641 1.9898174
5.7911139 4.6574564 1.7807004
6.2184548 4.7836165 1.9987218
6.6394701 4.7191067 1.9827397
7.0309696 4.4897604 1.639967
7.4682403 4.6239343 1.7453094
7.7127175 4.650569 1.8911325
8.4602919 4.5077329 1.9484996
-4.6714025 5.0281944 1.8773736
5.9375691 4.8819633 1.8214523
6.2392612 4.9914727 1.8915442
6.6122737 5.0239172 1.9731401
6.9762955 4.975255 1.9035434
7.4228454 5.0118303 1.8716788
7.8169489 4.8774271 1.9703388
-5.3395414 5.5207548 1.7256525
-5.1227388 5.4570503 1.7340056
6.2562442 5.328948 1.7898498
6.6292987 5.3632784 1.8514742
7.0091057 5.2937183 1.8655933
7.31392 5.2483029 1.8879309
-5.2485423 5.6908035 1.6826017
-4.9858494 5.8245621 1.7697099
-6.0334606 8.3804626 1.9923806
-6.8317766 8.5526009 1.6304983
-6.6977954 8.6053591 1.6394207
-6.1704893 8.6300287 1.8350879
-5.8027706 8.5598173 1.7857554
-5.4345775 8.6599989 1.7084916
-6.9162297 9.0806961 1.7970399
-6.5491362 9.0609694 1.771188
-6.2768331 8.964694 1.7193284
-5.6863351 8.9709892 1.9148276
-5.4035654 8.9939528 1.8097454
-5.0899243 9.043375 1.7698047
-6.921164 9.438117 1.7451704
-6.6539903 9.3335609 1.6870629
-5.2830296 9.36975 1.9539865
-5.061574 9.3341637 1.7931989
-5.3445368 9.6696129 1.7753228
-5.0260544 9.7451906 1.7567649
-4.7066164 9.6454058 1.6159976
-5.0549111 10.219973 1.8868781
-5.3573875 10.705389 1.8663849
-4.9237976 10.651738 1.8331228
-4.6926746 10.698301 1.6647966
-4.8402681 10.889063 1.7861489
-4.7318072 10.989608 1.84181
-4.7225695 11.403122 1.8396276
-4.8647556 11.720198 1.8304647
-4.7114983 11.762607 1.8762293
-4.0984321 11.761841 1.7078017
-10.098639 -8.7292042 2.258049
16.325968 -7.197063 2.0466509
17.036942 -6.8709674 2.3632748
16.965082 -6.5777464 2.2471757
16.783398 -6.1059623 2.1826057
16.866531 -6.2297602 2.2099886
25.184547 -6.1616545 2.1193769
25.264717 -6.103363 2.1951025
16.791052 -5.9494057 2.0520093
16.981352 -5.8230729 2.1745305
17.258101 -5.7091618 2.2589214
25.180563 -5.791862 2.2243125
25.22526 -5.8141465 2.203763
25.362803 -5.5229306 2.1903026
-6.6583519 -5.0731282 2.0182695
19.648317 0.7071479 2.199764
20.669775 0.75359118 2.2905829
20.881775 0.66351879 2.2998838
21.290167 0.58882976 2.0404587
19.854288 0.88354212 2.2005634
20.179773 1.0306873 2.1764879
20.518736 1.0104058 2.2145364
20.937057 0.90444654 2.0653996
4.8484311 1.3521032 2.3618507
20.24851 1.3605969 2.1687574
20.43959 1.4930122 2.1808491
4.3013878 1.9826474 2.1222343
4.5753093 1.9811065 2.2065096
5.0069218 1.9828146 2.1914287
5.3858318 1.9772748 2.2119045
5.7974405 1.9703462 2.1983149
6.0410438 1.9630553 2.1364143
9.5671892 1.8446544 2.0615942
9.818881 1.8416419 2.1593273
10.196942 1.8584315 2.2835708
10.44714 1.9049821 2.3510759
11.19585 1.9433331 2.3397985
11.363548 1.9053675 2.3354712
12.998008 1.8495953 2.2850137
13.43739 1.9004226 2.2364075
13.792328 1.8812863 2.1912503
14.205872 1.8778988 2.1967421
14.615801 1.8749716 2.2112293
14.976861 1.8705827 2.2175062
15.382566 1.8597466 2.1858349
15.800602 1.8521283 2.2091885
16.239412 1.9191338 2.237977
16.531334 1.9616237 2.2768836
16.913551 1.9465761 2.207962
17.270092 1.957536 2.1777034
18.595507 1.8639724 2.2027421
19.025074 1.8204755 2.2258372
19.393629 1.8192776 2.1981115
19.794243 1.8169543 2.1755555
20.177774 1.8092793 2.2168047
20.618593 1.7752699 2.2039728
20.907187 1.7559825 2.2469311
25.725836 1.76823 2.120945
4.214035 2.1977527 2.2255609
4.7364693 2.0048063 2.1770656
4.9643321 2.001018 2.3197932
6.0700722 2.0875297 2.2559938
9.52705 2.1560819 2.1934547
9.7105322 2.2016873 2.2194021
10.308832 2.119854 2.1759427
10.591602 2.1812744 2.1823337
10.992247 2.2657669 2.2316859
11.408246 2.24072 2.260922
11.726891 2.1644201 2.3419907
12.345891 2.368257 2.1019676
12.545458 2.3255985 2.2073627
13.014671 2.1200204 2.2713161
13.425493 2.201828 2.2141459
13.647975 2.3870926 2.326123
17.056496 2.0109777 2.0616329
17.227036 2.0286653 2.1359949
17.89344 2.1418843 2.2348504
18.302153 2.1238701 2.0969539
18.526297 2.1773202 2.212132
0.33107084 2.5333109 2.0686517
0.63764662 2.6370876 2.1306767
0.9134354 2.7464821 2.0989757
4.2006001 2.6059752 2.2189732
9.50527 2.6238363 2.1312449
9.7611656 2.5674617 2.2116191
10.356001 2.4294848 2.273936
10.673308 2.4650488 2.2575073
10.960763 2.4220243 2.2417083
11.343838 2.4543793 2.0065789
12.232542 2.4204693 2.0057755
13.585807 2.4087052 2.2676377
13.653539 2.4463258 2.2605655
18.84445 2.5168929 2.1378632
0.6132924 2.8964543 2.0736914
0.89185995 2.9841218 2.1203773
1.698025 3.1670492 2.0427268
4.20437 2.9989743 2.1908238
9.0421782 3.1660795 2.0001183
9.4552202 3.0166018 2.1171677
9.6790705 2.9389124 2.2716298
14.660421 3.132997 2.2131987
19.685314 2.8552909 2.1553493
0.88447386 3.2904127 2.0704446
1.6897044 3.2201357 2.0981314
4.1999464 3.3803582 2.2084844
8.9961262 3.416203 2.0603113
9.3493919 3.3608239 2.2074337
14.682999 3.3826256 2.1177018
19.668591 3.3450313 2.2818017
4.2119098 3.7722988 2.2400196
8.1513672 3.8769879 2.0428784
8.5977011 3.8606515 2.0643883
9.018055 3.7979019 2.1710227
9.3060846 3.7183919 2.3321791
14.681483 3.7770803 2.165746
4.2125697 4.1559854 2.2212343
7.847034 4.3046026 2.0524163
8.2259588 4.2185531 2.0983651
8.5918093 4.1963739 2.2155068
8.9340839 4.1420774 2.3266599
14.692454 4.1483612 2.3394718
4.2190404 4.5579691 2.2874665
5.6800404 4.5878892 2.0387983
6.398181 4.7853131 2.0577631
6.6426735 4.7450614 2.1119227
6.977459 4.7307973 2.1827469
7.3787112 4.6667371 2.1813631
7.799437 4.5718994 2.1794686
8.1857338 4.5217943 2.2070746
8.4656677 4.4903116 2.3340454
9.1240177 4.4127398 2.2459934
-4.6077833 5.077745 2.2162263
4.2229772 4.8533993 2.265204
5.8720903 4.9994445 2.1849651
6.1990662 4.9347939 2.2149222
6.5711603 4.908473 2.2631166
7.0244765 4.9566894 2.1372938
7.3723769 4.9955993 2.0878093
7.7772379 5.0042377 2.0868073
14.719982 4.8614998 2.2461023
4.2186031 5.3222914 2.2458425
5.6565347 5.205812 2.1929727
4.2440529 5.8132563 2.3188336
-6.1774049 8.6543474 2.120306
-5.8048539 8.6951818 2.1280439
-6.6082349 8.9951744 2.2803206
-6.1295643 8.8683052 2.279633
-5.7433848 8.9807167 2.1914897
-5.5189323 9.0167055 2.1100616
-6.118875 9.3624649 2.1898484
-5.7193894 9.4647207 2.2310731
-5.4108539 9.4529152 2.1624467
-5.1108398 9.4960766 2.0396531
-5.8199596 9.6833792 2.3380997
-5.3227344 9.6976519 2.157825
-5.0250058 9.804822 2.1870975
-5.2418499 10.137241 2.3822021
-4.9858165 10.195297 2.1673288
-4.9857249 10.573703 2.171103
-4.9288459 10.927299 2.2717371
-4.7441473 10.960129 2.1248536
-4.9167857 11.450272 2.1838777
-4.6158195 11.344764 2.1505327
-10.681027 -9.1302109 2.7351615
-10.166595 -8.8269005 2.7343593
-10.125568 -8.6972761 2.6772299
17.003031 -6.9582386 2.6372995
16.947607 -6.5883851 2.6205585
16.783958 -6.1913557 2.5253491
16.869541 -6.1703258 2.6053588
17.212318 -6.0453672 2.5958002
25.185301 -6.1223383 2.6025431
25.241503 -6.1176848 2.6170177
17.054022 -5.9104967 2.5871077
17.23402 -5.8100719 2.5860755
25.186897 -5.8374443 2.6060205
25.265364 -5.7387576 2.633467
25.390226 -5.5450935 2.5943995
19.574844 0.76592481 2.4121141
21.636944 0.63193595 2.7298398
18.966099 0.96725482 2.7965944
19.411184 0.94207567 2.6683939
19.839306 0.93950421 2.7208443
20.101 1.0678222 2.5292962
20.632065 1.0514781 2.4353042
21.411215 0.88786477 2.733825
21.651005 1.0192183 2.7279811
4.7543936 1.5403513 2.5142581
4.9434328 1.4899328 2.6117063
10.6294 1.5822293 2.7161171
11.00471 1.5425229 2.7308049
20.163828 1.26985 2.4927282
20.574917 1.4866751 2.4918408
4.3108568 1.9653351 2.5547709
4.5870042 1.8679172 2.5805113
4.9851618 1.8597794 2.6524653
5.4402313 1.9893442 2.5890467
5.8122888 1.9787223 2.5812302
10.221502 1.836148 2.6149678
10.62242 1.7736055 2.5433567
11.02306 1.7949353 2.6513157
11.345243 1.8377285 2.6599905
11.761166 1.9189798 2.6865115
12.153009 1.9513617 2.7206182
13.04248 1.8197274 2.6171358
13.383854 1.8641906 2.6054406
13.784318 1.8870839 2.5939925
14.202208 1.8836213 2.6001117
14.589767 1.8797852 2.6174548
14.993789 1.8746282 2.6036296
15.390895 1.8708904 2.5965731
15.765766 1.8605608 2.6078632
16.217371 1.9263386 2.6277521
16.426622 1.9473795 2.4034228
17.166107 1.9927818 2.5874522
18.595259 1.860387 2.608283
18.979704 1.8261818 2.6282098
19.374609 1.8162748 2.5892906
19.785898 1.8160694 2.5942669
20.196659 1.8065315 2.5918763
20.611855 1.7954447 2.6141183
20.926605 1.7623546 2.6318412
23.519432 1.8853081 2.7295294
24.084362 1.8199492 2.4831786
24.530869 1.7989616 2.4968827
25.084644 1.8000178 2.5209756
25.34568 1.7792995 2.6223958
25.809372 1.754218 2.5717511
4.2203016 2.1644945 2.5866923
4.7596831 2.0101998 2.5822845
4.9696922 2.006218 2.6237326
5.3406048 2.0053461 2.6822703
5.9692287 2.2006612 2.6921842
9.8950939 2.2105827 2.4560413
10.104222 2.1964462 2.6442347
10.694131 2.1463675 2.4350667
11.0179 2.1973624 2.5261402
11.397512 2.1859457 2.5913992
11.809464 2.1307917 2.5907872
12.172915 2.1085014 2.6623416
12.605821 2.0662215 2.6978734
13.037586 2.0936542 2.6399
13.412876 2.2302086 2.6030114
16.345686 2.006897 2.5451467
16.654005 2.0723507 2.5720415
16.992044 2.0565388 2.5627203
17.385395 2.0523751 2.6156785
17.771786 2.0748789 2.5876243
18.208103 2.0997992 2.5880878
18.490805 2.1480515 2.5332146
23.564133 2.1447887 2.7570176
4.1992297 2.608577 2.607286
5.9490137 2.4156129 2.7834773
9.8131418 2.6310925 2.5750334
10.13643 2.5018835 2.644264
10.713077 2.4375131 2.4309664
10.856173 2.4281511 2.4289949
13.581472 2.4284363 2.7255976
13.653869 2.4482658 2.7456787
18.907488 2.543354 2.4880471
4.2050276 2.9916134 2.6229341
9.5898552 3.0681663 2.5188055
9.7852249 2.9984126 2.6043277
10.04962 3.0341551 2.7922089
14.662505 3.1078057 2.5853684
19.69257 3.0444348 2.652101
4.2071867 3.4030004 2.6122696
9.5539055 3.4197147 2.4297569
9.7817173 3.3830242 2.6219566
10.020897 3.5665989 2.7640169
14.676206 3.4034696 2.6082544
19.67395 3.3153844 2.5399508
4.2109494 3.8320928 2.5877173
9.4392853 3.8395007 2.5037913
9.8010101 3.7841053 2.6342554
10.03076 3.8419359 2.7727165
14.678529 3.7696929 2.603827
19.672709 3.6938567 2.6984112
4.2142715 4.2003474 2.6070919
8.7432804 4.3441911 2.4438701
9.0630035 4.2576356 2.4604883
9.4130173 4.2001185 2.5970509
9.7333612 4.104207 2.6963816
10.021961 4.0361276 2.634799
14.685196 4.2161608 2.6350069
4.2163868 4.5949955 2.6078539
7.482626 4.7543111 2.4383645
7.8377509 4.6783562 2.4867532
8.2020779 4.6581383 2.5688703
8.6030474 4.5967426 2.61028
9.0147285 4.5631542 2.6516712
9.3727131 4.5836849 2.68294
14.694159 4.6032062 2.6670218
4.2163734 4.9600668 2.6333992
5.5773993 5.1003551 2.5711596
5.8647037 5.1173191 2.4650631
6.2112656 5.1398697 2.4843948
6.6335611 5.0784788 2.5154116
6.9944367 5.0462003 2.5920238
7.3732853 4.9490561 2.6210337
7.7797456 4.8996673 2.7168157
8.2273788 4.853014 2.7332358
8.4255705 4.8248816 2.7148962
14.704946 4.957303 2.6783679
4.2229085 5.3672271 2.6659698
5.8641429 5.3868423 2.6089189
6.1779785 5.3299341 2.6421504
6.5647807 5.2640877 2.6949928
6.8659043 5.2459064 2.7701025
14.700726 5.3816519 2.7092776
4.2240524 5.7972765 2.6980224
5.8367581 5.605875 2.7154894
13.91113 5.8699932 2.7248476
14.370281 5.8726268 2.6795568
14.649199 5.7713547 2.721684
-7.736393 8.314887 2.7020035
-7.7260518 8.4306526 2.7025979
-6.1134195 8.6424961 2.5206747
-6.8204093 9.1640244 2.6719813
-6.6014276 9.0512943 2.5258138
-6.2947598 8.9825401 2.4802301
-5.7204623 9.1266603 2.6191595
-5.3791881 9.1385717 2.6913261
-6.8446584 9.2723017 2.5972488
-6.7553749 9.2607021 2.6048589
-6.2135577 9.2702751 2.4161916
-5.6675744 9.3644238 2.5731452
-5.4501853 9.3799496 2.618329
-5.1308112 9.5464487 2.6176202
-5.7221775 9.8068972 2.5646312
-5.4130468 9.7461367 2.5577455
-4.9768887 9.7367086 2.4537809
-5.7180843 10.004404 2.5875764
-5.3330259 10.081165 2.5810356
-4.9954443 10.295199 2.5157712
-5.0829072 10.591351 2.5259264
-4.976028 10.940477 2.5407295
-4.75597 11.111444 2.6050911
-4.935771 11.504414 2.4479976
-4.7798185 11.375271 2.4225998
-10.236543 -10.240071 3.0927188
-10.586195 -9.3443727 3.1368165
-10.585199 -9.1360645 3.182667
-10.236585 -8.6692619 3.1214817
-10.284853 -8.3477201 3.1220951
17.002541 -7.2619734 3.0160608
17.039791 -6.9754963 2.9964442
17.221066 -6.8767128 3.1470423
16.97517 -6.6007538 2.9928966
17.232494 -6.7423792 3.0303161
16.774094 -6.2564268 3.0553937
16.88051 -6.167799 2.9940372
25.186222 -6.1906633 2.9427514
25.250736 -6.1550584 3.032279
17.064238 -5.9403911 2.9716852
17.221903 -5.8438282 2.8683171
25.191236 -5.8990593 2.9824831
25.282246 -5.7576475 2.9920278
18.795132 0.71793491 3.0721977
21.611336 0.6842103 2.8628836
17.578396 1.0413054 3.0530081
17.761309 1.0631506 3.0796132
18.156658 1.0306104 3.0685723
18.761845 0.92626274 3.0568693
18.944197 0.96712488 3.0503967
19.369612 1.1144769 3.1097922
19.636723 0.92904007 2.8687804
20.10051 0.96295929 3.0048366
20.626631 1.0244043 3.0636187
21.100729 0.97620058 3.1458247
21.401464 0.9436208 3.0316432
21.67931 0.97538829 2.9826276
22.047855 0.92355704 3.1715958
25.44762 1.0847367 3.0924914
4.76232 1.5671548 2.807267
5.0640426 1.487873 3.0143049
5.3534188 1.4426209 3.0394535
10.674906 1.5525588 2.885478
11.03669 1.5392101 2.9058321
11.389048 1.4943346 3.005425
11.764457 1.5492351 3.0984478
12.268297 1.5380617 3.1035299
12.587508 1.5558084 3.0698683
13.079152 1.5458364 3.002454
13.464605 1.5588337 2.9929478
13.79807 1.4924066 3.0202053
14.151918 1.4859982 3.0893342
14.468025 1.4866939 3.1477199
19.540401 1.2110497 3.1800792
25.391994 1.2431937 3.076498
25.601606 1.3868797 2.8206692
4.6429296 1.9267305 3.0383739
4.9593196 1.8196673 2.9840033
5.3779988 1.8484429 3.0487387
5.7490215 1.9562569 2.9834921
10.270137 1.8344694 2.8647232
10.61095 1.7980193 2.9982588
11.035432 1.7356899 3.0988843
11.439439 1.7339715 2.9723456
11.829118 1.7826025 2.996495
12.162948 1.7586243 3.0040603
12.61266 1.7734427 3.059551
13.01181 1.7924556 2.9983366
13.383277 1.7579123 2.9888222
13.820058 1.7788136 2.9163766
14.194654 1.7953271 2.9931009
14.591437 1.8498359 2.9997201
14.968858 1.869326 3.0223837
15.391956 1.8748786 3.0079803
15.821388 1.8690276 3.0046389
16.19722 1.8798839 3.0051854
16.603403 1.8762872 3.0362456
16.99819 1.8740917 3.0354416
17.415899 1.8690735 3.0224977
17.805178 1.8769397 3.0429509
18.174887 1.8817393 3.0267031
18.597534 1.8538164 2.9773195
19.017357 1.8278742 2.9793892
19.408796 1.8267523 2.9797828
19.804867 1.8126366 3.0161221
20.19916 1.8174875 2.9976177
20.611582 1.8136237 3.0084658
21.001589 1.8060843 2.9931641
21.376183 1.8191783 3.0071485
21.798376 1.8189416 3.0245607
22.201643 1.8186028 3.0409951
22.604618 1.8193734 3.0283546
23.008205 1.8428133 3.0613246
23.444012 1.868996 2.9822257
23.768127 1.7918023 3.0194786
24.224327 1.7779195 3.0335081
24.594131 1.7472014 3.0516891
24.952206 1.80364 2.9732814
25.330448 1.7588747 3.000278
25.772635 1.8015522 3.0912423
26.204168 1.8416252 2.8884764
26.614767 1.7719666 3.0757394
27.13316 1.8332953 3.0226085
4.2354646 2.1663182 2.9916682
4.5713606 2.0086162 2.9730976
4.9832273 2.0081525 2.9988015
5.4188113 2.0110328 3.0006454
5.8868241 2.1304522 2.9856625
10.254433 2.183255 2.8965447
10.568117 2.2045395 3.0745213
10.838621 2.2185943 3.1739364
11.501725 2.1258743 2.8381131
11.79758 2.0958259 2.9226329
12.184655 2.0658724 2.9766479
12.617081 2.0490665 2.9847178
12.976195 2.0461128 2.9273255
13.45027 2.1721663 2.8762879
16.650351 2.0548496 2.8742552
17.036896 2.0492759 2.8738439
17.347597 2.053916 2.8495383
17.754074 2.0558727 2.8797231
18.138189 2.0692258 2.8846953
18.448853 2.0625825 2.8309431
22.994772 2.0270219 2.9071302
23.511938 2.0983188 2.9550178
4.19801 2.6028836 3.0091012
5.954143 2.4034352 3.0047691
9.9135332 2.6187217 2.8940642
10.200584 2.5598276 2.9866712
10.531936 2.5780945 3.1453662
13.595726 2.4333425 2.8396072
13.635115 2.4527996 2.9178047
14.192638 2.7882214 3.0418591
4.19453 3.0046706 3.0065217
9.9533081 3.0691719 2.8744068
10.177076 3.0175202 2.9893467
10.525497 3.0184979 3.1360869
14.660058 3.067102 3.0025771
19.690765 3.1616416 2.8165078
4.1907339 3.3873103 3.0066655
9.9684687 3.4622412 2.8336527
10.15056 3.3791001 3.0001035
10.483767 3.4301603 3.1546772
14.668121 3.3868296 3.0026162
19.652922 3.4283283 2.8285446
4.2025571 3.782161 2.9824221
9.4344091 3.8462734 2.841238
10.21609 3.7835972 3.0013704
14.676684 3.7863514 3.0021482
19.705717 3.7435064 2.9337044
4.2066536 4.2146702 2.9844003
9.5220127 4.3784513 2.8551188
9.8310623 4.2489433 2.8775086
10.177615 4.2114573 3.0142992
10.540406 4.2431936 3.1110773
14.67842 4.184032 2.9897084
4.2104416 4.6128917 2.9726021
7.8898931 4.7424402 2.8049703
8.6228323 4.7421141 2.8980525
9.0053883 4.73489 2.845427
9.406661 4.6589737 2.9261217
9.8025036 4.5705824 3.0757439
10.142181 4.6047292 3.1245794
10.427235 4.558229 3.1482024
14.689302 4.6128464 2.9902799
4.212863 4.9990659 3.0099804
7.1793995 5.1992488 2.8122101
7.4305339 5.1152253 2.8537929
7.7992153 5.0626225 2.9534104
8.1775837 5.0320201 2.9416125
8.5840034 4.9724355 2.9745076
8.9808426 4.9377508 3.0322785
9.3725843 4.8923879 3.1097555
9.6435366 4.8487988 3.1575155
14.691825 5.0095892 3.0216396
4.2216721 5.4013824 3.0018969
5.9020572 5.4158196 3.0058658
6.1946397 5.4938231 2.9896677
6.6264892 5.4645767 2.9352832
7.0152297 5.3973765 2.980083
7.3747134 5.3330183 3.0379856
7.8010488 5.2993689 3.1139276
8.0899734 5.2770066 3.0815263
14.689434 5.4003186 3.0196023
4.2243762 5.7953534 3.0232189
5.9346828 5.7193985 2.8688788
6.048059 5.6842031 2.9120383
6.5894818 5.6500769 3.145498
6.8485374 5.6302519 3.1845331
13.860432 5.8838663 2.9343927
14.274971 5.8823395 2.9800553
14.618937 5.8074303 3.0419528
4.2279034 6.1362171 3.0642185
4.8019891 6.6268339 3.0336649
4.7857218 7.085392 2.9417076
4.8082781 6.9851584 3.1563926
4.7938309 7.3898649 2.9562693
4.8138375 7.3991942 3.1127558
4.8182173 7.7080498 3.1135612
-7.6002049 8.3711338 2.9220569
-7.5783534 8.3711977 2.9030049
4.8746548 8.0398712 3.0322146
-7.4999738 8.5708151 3.0291028
-7.4502602 8.8246117 3.1656005
-5.6489248 9.3302927 2.8212726
-5.3338165 9.2310514 2.8037083
-5.8020029 10.11854 2.8037386
-11.725168 -12.21802 3.4826815
-10.479191 -10.147 3.3707323
-10.199956 -10.154729 3.3873241
-9.973155 -10.178223 3.4938569
-10.488113 -9.8735275 3.465498
-10.318656 -9.9461432 3.4517272
-10.524637 -9.4169598 3.5323846
-10.557554 -9.1736345 3.5785441
-9.7922945 -8.9383526 3.5686007
-9.5054064 -8.9942932 3.5747104
25.732426 -8.9849939 3.5327787
-10.155771 -8.594533 3.4334126
-9.9200535 -8.7658892 3.4819102
-9.5187836 -8.4848757 3.5786109
-10.356693 -8.3675108 3.5762143
17.061666 -7.3133039 3.4140964
16.75127 -6.8207469 3.3962641
17.065662 -6.9744005 3.4098706
17.224491 -6.8823938 3.2110071
16.736755 -6.7004142 3.5309296
16.915541 -6.5934601 3.3754418
25.218664 -6.446003 3.3520637
16.791283 -6.3261528 3.2771735
16.887133 -6.1714802 3.4001312
25.186409 -6.1216321 3.3981619
25.242632 -6.1626267 3.4289854
17.049923 -5.9435434 3.3726597
25.188669 -5.8911967 3.4009762
25.283691 -5.7808805 3.3922694
25.436363 -5.5560026 3.3123014
17.968925 0.79527158 3.589993
18.830812 0.75787669 3.2558115
19.771677 0.78496456 3.5938425
21.42522 0.75325453 3.4985592
21.856733 0.76287752 3.3926241
22.171886 0.77960157 3.3656816
23.047756 0.70815372 3.5405159
23.358486 0.67581892 3.5587697
23.779699 0.69754648 3.5614986
24.022661 0.74360979 3.5660994
14.71892 1.0117569 3.5736616
14.994528 1.1245097 3.5466018
15.393834 1.084576 3.5606091
15.810915 1.0567764 3.5356057
16.213438 0.9955653 3.5469174
16.605263 1.0016385 3.540693
17.014553 1.0519762 3.5092354
17.427591 1.0484519 3.4932041
17.789824 1.0349798 3.4939139
18.192911 1.0084953 3.4835689
18.620501 1.0326695 3.5194023
19.015778 1.0027342 3.4231954
19.354784 1.033752 3.4253511
19.761805 0.95322591 3.527885
20.200609 0.94630575 3.5547042
20.624245 0.95064068 3.5636232
21.042101 0.98438025 3.4432902
21.385569 0.90265977 3.3810868
21.822662 0.8883478 3.4441204
22.165686 0.86481881 3.4332886
22.604401 0.83247381 3.5465043
23.001106 0.81330729 3.5488057
23.32822 0.82461548 3.5462382
23.865438 0.89300787 3.5715053
24.174911 0.94889712 3.580195
24.628614 1.079114 3.5714972
24.992216 1.1388277 3.5558412
25.370876 1.1036184 3.4284196
25.858017 1.0858861 3.5586481
26.175524 1.1421251 3.5241685
26.644117 1.0628322 3.5654788
5.0188751 1.5132318 3.4108779
5.2907295 1.5119267 3.312346
11.518145 1.5137907 3.2534075
11.852155 1.5191879 3.277719
12.239641 1.5192382 3.3446271
12.575216 1.5486549 3.3132672
12.991297 1.528801 3.4009292
13.411926 1.4991479 3.3900623
13.812439 1.4901255 3.3649359
14.207256 1.4856392 3.3695605
14.625716 1.4413702 3.4259279
15.010631 1.353794 3.4151893
15.423603 1.3802894 3.4829075
15.811634 1.3865565 3.5049179
16.20709 1.3675264 3.4875031
16.617186 1.413424 3.5166504
16.991571 1.4068129 3.5023408
17.379917 1.3927447 3.5132658
17.785801 1.4085703 3.521291
18.190113 1.4026501 3.5156157
18.583662 1.3978633 3.5217719
18.988203 1.4744916 3.53596
19.427095 1.385857 3.4598112
19.749569 1.4417973 3.3841496
20.153675 1.5665102 3.4063928
20.913738 1.246937 3.5053637
21.246582 1.2946782 3.4175887
22.994164 1.5921704 3.5960412
24.739647 1.2205096 3.5531313
24.971722 1.2651703 3.4966624
25.422613 1.2281641 3.4067769
25.947037 1.2714555 3.5489547
26.230045 1.2055289 3.5799809
26.458075 1.4195006 3.5344267
4.2148371 1.9012542 3.2557592
4.7028837 1.7788759 3.4086113
5.0086784 1.7908436 3.3615408
5.3929057 1.8264078 3.4020994
5.7032328 1.8594472 3.3412476
11.16548 1.8357886 3.2625206
11.441371 1.7230676 3.2587118
11.813445 1.7164524 3.318224
12.201854 1.6881343 3.36657
12.51979 1.7363418 3.4431047
13.054794 1.7662047 3.4566021
13.400461 1.7874715 3.4058435
13.789371 1.7010548 3.4305129
14.178111 1.7248511 3.4217577
14.595049 1.7691302 3.4047196
15.066227 1.8037493 3.2671955
15.463991 1.818391 3.3578012
15.797867 1.8013477 3.4081485
16.209587 1.7920642 3.4332609
16.603127 1.7806591 3.4350941
17.003563 1.8069638 3.4162741
17.404802 1.7850609 3.4268613
17.807835 1.79757 3.4323528
18.212833 1.7945751 3.4061825
18.620417 1.7745728 3.4198141
19.016609 1.7792358 3.4207227
19.394665 1.7957546 3.4254689
19.74457 1.7404528 3.358212
20.15826 1.7250731 3.2702549
20.651468 1.810717 3.2812533
21.014412 1.8005688 3.3155677
21.420643 1.8036247 3.3488598
21.814188 1.7998108 3.345578
22.19261 1.7882552 3.3932803
22.629425 1.7736278 3.3571935
22.988964 1.7651412 3.3760543
23.416975 1.7681955 3.4165378
23.791235 1.757427 3.4419448
24.147375 1.7706876 3.3699894
24.589006 1.7589756 3.3111367
24.84024 1.6661415 3.371665
25.44348 1.6141651 3.3838248
25.998886 1.795661 3.2923605
26.189823 1.8560977 3.5179374
26.60754 1.7906289 3.3678026
4.2382259 2.158524 3.3752334
4.5576057 2.0256927 3.4241152
5.0735765 2.0137558 3.371736
5.4941201 2.0178852 3.3453581
5.883081 2.1421049 3.4118629
10.584599 2.2274594 3.2323077
10.95213 2.2366598 3.2893283
12.677519 2.00352 3.2551157
12.825275 2.0574656 3.2127392
23.085712 2.003509 3.2065539
23.436533 2.1961336 3.3042552
4.1948113 2.6072013 3.4023092
10.251125 2.5951128 3.2299843
10.652263 2.6320217 3.2408795
10.992764 2.5618336 3.3420956
11.368196 2.5910106 3.4877625
11.632852 2.6006978 3.5796609
4.1962824 3.0205696 3.395587
10.227674 3.0150249 3.2038784
10.709667 2.9775639 3.2503819
11.021864 2.9913561 3.411593
11.292676 2.9159105 3.5384679
4.1976709 3.4104407 3.4231665
10.352814 3.3041644 3.2568493
10.585007 3.2803252 3.2552693
10.853798 3.225522 3.3485951
14.670918 3.3709555 3.2703087
4.2031569 3.8245587 3.3922696
5.5804749 3.8953094 3.418411
5.6143541 3.9065623 3.4866474
10.316309 3.8879459 3.2191176
10.479222 3.9333768 3.241056
10.921187 3.6063583 3.3755963
14.681748 3.8211887 3.3417821
4.2070146 4.2298698 3.402698
5.5310392 4.1944013 3.4036372
5.6160612 4.1961308 3.5120387
14.68696 4.2191429 3.3639443
4.2036819 4.5963502 3.3945396
5.5622349 4.595242 3.4425299
5.6035991 4.6231399 3.4669187
9.9039173 4.7031908 3.2441409
10.20491 4.706789 3.2581456
10.402076 4.6720896 3.2523685
14.689154 4.5919728 3.3842061
4.2129698 4.9781456 3.4074347
5.4942479 5.0252223 3.4748681
5.6146126 4.9607644 3.4666176
7.7796464 5.023344 3.4362583
9.0492411 5.0720806 3.3473067
9.3975344 5.053586 3.3321278
9.8014221 5.0256248 3.3712809
10.220214 4.9928393 3.4350309
10.509101 5.0141268 3.4968865
11.047401 5.1268082 3.5170531
14.674249 4.9663272 3.3905215
-8.8828239 5.2304087 3.598546
4.2198639 5.3792486 3.3817303
5.1561174 5.507618 3.5643871
5.3888893 5.4515438 3.5204303
5.7197757 5.4276013 3.4086914
6.1637917 5.5535831 3.2874708
7.0563111 5.5264058 3.3647473
7.3766913 5.5178742 3.3247716
7.6896911 5.4591017 3.2585111
9.0325251 5.3045621 3.4171982
9.3495131 5.3036017 3.4862924
9.7334776 5.28474 3.5353165
10.025501 5.2048025 3.5747533
10.864288 5.2736444 3.5143147
14.694269 5.3913407 3.361676
4.2199893 5.7773347 3.3914297
4.7706976 5.9522047 3.386631
5.0847998 5.8499928 3.5565639
5.386209 5.7586212 3.5004005
5.7400208 5.7445745 3.4555895
6.2220654 5.6945276 3.4259312
6.5739403 5.8240919 3.3668399
7.0020318 5.7737637 3.4191859
7.3471999 5.7737784 3.4714839
7.7320457 5.7696133 3.4640083
8.1387444 5.8593922 3.3892581
9.0832272 5.7883492 3.5428085
14.240906 5.85955 3.3182068
14.635491 5.8010669 3.3798232
4.2234254 6.169529 3.4004977
4.7846828 6.2113099 3.3462975
5.0067682 6.2155418 3.5483186
5.3362412 6.1548519 3.5439789
5.6706052 6.0302248 3.5600171
6.556931 6.1250186 3.4865313
6.8856211 6.0872364 3.5735116
7.5348759 6.0465631 3.5586812
7.938138 6.1181359 3.5557392
8.1027679 6.1116228 3.5340793
9.0443707 6.2835937 3.5642266
9.225668 6.1661816 3.5579324
4.1683745 6.5225 3.44892
4.9833126 6.6260357 3.5194206
5.3105202 6.639256 3.5653911
8.6709518 6.4999213 3.5813024
8.8879604 6.4781437 3.5855832
4.2215691 7.0179911 3.4627395
4.9855676 7.0347948 3.507869
5.2887015 6.9698119 3.5432758
4.1750894 7.2795382 3.4895363
4.9340835 7.3425097 3.4651992
5.2898831 7.376018 3.5336721
4.136456 7.6201377 3.4871297
4.953793 7.7991128 3.4691401
5.2273254 7.7425466 3.5282738
-7.5212636 8.3550844 3.2788045
5.0161204 8.0500927 3.4229634
5.2016187 8.0664196 3.4787912
-7.4573913 8.5966339 3.4170463
-7.3977671 8.8470716 3.388726
-11.196504 -12.486902 3.9035921
-11.665845 -12.178958 3.8319833
-11.482244 -12.222266 3.8691812
-11.736538 -11.944973 3.8461194
-11.460193 -11.929253 3.974437
25.014359 -10.90018 3.9105248
25.756664 -10.949183 3.7570376
25.111565 -10.677809 3.9994915
-10.177592 -10.068452 3.7297194
-10.472013 -9.7731133 3.7622888
-10.275479 -9.8174934 3.7988994
-10.513957 -9.4281626 3.9039443
-10.249269 -9.4271317 3.9471493
25.585594 -9.2041235 3.8791938
-10.486527 -9.0956554 3.622736
-10.372247 -8.9260025 3.9351482
-9.7026539 -9.0897312 3.8502669
-9.4363031 -8.8700333 3.8413286
25.576427 -8.9170437 3.8680239
25.659369 -8.9610748 3.7732677
-10.509439 -8.6130466 3.8657165
-10.309755 -8.4400005 3.9798379
-9.7359114 -8.5365839 3.8988979
-9.442812 -8.6046085 3.8264949
-9.139843 -8.6733294 3.8331208
25.740273 -8.7514763 3.9022617
-10.545044 -8.2950745 3.893187
-10.201998 -8.3296757 3.9800351
-9.711174 -8.2630262 3.9167094
-9.4487772 -8.1908455 3.9650669
-9.66992 -7.9770947 3.9998455
17.071108 -7.6803951 3.9478483
17.062164 -7.3892078 3.8232758
17.221701 -7.23277 3.9095719
16.568394 -6.9033394 3.979053
17.07662 -7.0653191 3.7177179
17.238485 -7.0856657 3.8479829
16.790648 -6.515512 3.8416028
16.871477 -6.5624437 3.7889524
25.329739 -6.4659729 3.8553381
-10.943897 -6.3378849 3.8068533
16.779358 -6.1557765 3.9246705
16.890173 -6.186738 3.7707908
25.175182 -6.1807408 3.756609
25.253744 -6.1658039 3.8125312
-11.175875 -5.8604264 3.7728782
16.989941 -5.9403906 3.8541486
25.186079 -5.9397078 3.7768235
25.303726 -5.7775064 3.8125191
25.43288 -5.5841861 3.7731075
16.224123 0.75163001 3.7421777
16.615643 0.74794096 3.7021997
17.035059 0.78263652 3.793839
17.381706 0.79551208 3.7646074
17.823412 0.72662318 3.7588151
18.176876 0.69583201 3.6994636
18.553282 0.76361245 3.6676452
18.960522 0.78063601 3.7638867
19.406633 0.76931638 3.7949388
19.726059 0.78226674 3.7676895
20.334867 0.77721727 3.9051602
20.579632 0.77707434 3.8088434
21.133671 0.78766286 3.9494159
21.400568 0.74978483 3.7465789
21.774364 0.76397669 3.6857042
22.210447 0.75454885 3.8405776
22.637783 0.67791063 3.7951963
23.015896 0.63522625 3.7040362
23.433809 0.68381029 3.6815424
23.877377 0.68741077 3.6985867
24.023045 0.63341516 3.7265058
25.36627 0.74630833 3.9096642
14.698872 1.0797839 3.6849985
15.010892 0.95818567 3.6686997
15.347959 0.90670806 3.682111
15.832172 0.89412755 3.7166924
16.087751 0.82338858 3.6815009
16.632885 0.83260703 3.6583118
17.026638 0.8706935 3.6948061
17.398048 0.8615427 3.7135253
17.748297 0.85632694 3.6554978
18.282848 0.8759141 3.6237698
18.632351 0.86521798 3.620296
19.017483 0.87108767 3.677846
19.400761 0.85503006 3.6872814
19.78676 0.84496999 3.6975472
20.186901 0.86056155 3.7060232
20.578396 0.85509598 3.6937542
21.00231 0.84455478 3.739141
21.353308 0.84492302 3.6620572
21.815487 0.85211325 3.7086244
22.251322 0.85127586 3.7094412
22.461287 0.83255291 3.6752527
23.318645 0.82199085 3.6053884
23.852385 0.86067635 3.6218944
24.22086 0.87443554 3.6572263
24.606846 1.0270237 3.6197133
24.984869 1.028926 3.6649868
25.460886 1.0585684 3.7432947
25.836393 1.0243976 3.7145958
26.180994 0.9452877 3.7280018
26.520147 0.89336294 3.720927
5.0707893 1.5426091 3.6664491
13.935669 1.598612 3.6213021
14.260683 1.5364374 3.7202778
14.608315 1.4335625 3.775537
14.852208 1.479268 3.891175
16.236338 1.5536157 3.610688
16.994888 1.4505093 3.6212802
17.400043 1.4574025 3.6610792
17.609779 1.2972232 3.6343429
18.069706 1.5058588 3.6542788
18.582407 1.5024179 3.6087573
19.166962 1.5851325 3.6116207
25.446472 1.4260052 3.7251787
26.39625 1.4430298 3.8750088
4.7180362 1.8009027 3.7884717
5.0145278 1.7451798 3.8262661
5.3665018 1.8679463 3.7276032
5.7056022 1.9200307 3.6829605
12.44121 1.7683291 3.6049323
13.033834 1.8481127 3.7387078
13.408058 1.8019148 3.7362256
13.81666 1.7758754 3.7353446
14.15484 1.7264527 3.8281105
14.509508 1.6717762 3.9220233
16.725107 1.7079061 3.6246195
16.833418 1.6490139 3.6226368
17.380215 1.7663741 3.6802335
17.849249 1.6868778 3.6807487
18.189163 1.7298868 3.7097309
18.687191 1.6981375 3.7503622
18.916475 1.6545491 3.7371993
19.437283 1.6658243 3.6976905
19.680958 1.7465153 3.6508634
22.272594 1.7572429 3.6522732
22.574497 1.7393615 3.6143708
23.211075 1.6925174 3.6053207
23.937199 1.7046326 3.6355059
24.549587 1.6723737 3.7256906
4.2425079 2.1588006 3.8005679
4.5385351 2.0358975 3.7954504
5.0560431 2.0176361 3.94206
5.400806 2.0290856 3.8958211
5.7972517 2.1043429 3.691745
12.313642 2.2274463 3.7060997
13.22373 2.0589061 3.9557776
4.1960344 2.5976944 3.7787342
5.9089446 2.4498677 3.6782873
11.552444 2.7039242 3.6500788
11.809516 2.673511 3.6941545
12.029339 2.6291997 3.7434273
4.1938281 3.0045125 3.8100226
11.47729 2.8804874 3.6246839
11.769869 2.8874831 3.7545431
12.116474 2.9162076 3.873996
4.1884317 3.4188552 3.8204074
11.991611 3.230402 3.8741429
4.1970911 3.8082271 3.8105731
5.5509396 3.9194167 3.7822096
5.6370306 3.8835366 3.7468054
4.2011762 4.2008228 3.7872231
5.6435871 4.1394515 3.66959
11.989895 4.1192417 3.9785862
12.005674 4.3057919 3.9178407
4.2113776 4.6124291 3.81077
11.587215 4.7687526 3.9229574
11.756643 4.7309237 3.9212456
14.661217 4.5693874 3.6186547
-8.8581295 5.1408348 3.9282384
4.2149162 5.0079412 3.801475
7.4490156 5.0485697 3.8293259
7.6555533 4.9990692 3.739212
9.0167007 5.1652627 3.6335459
9.5740356 5.0462341 3.9509158
9.6958656 5.127491 3.6923234
10.248973 5.0540776 3.8110254
10.518226 5.1071 3.7549706
11.559035 4.9888401 3.9597621
11.681308 5.1057811 3.8730059
14.626884 5.0346889 3.6207678
-8.7581673 5.2676706 3.8726032
4.2189884 5.3827524 3.7975357
5.2875419 5.3997889 3.6239102
5.6379452 5.4849086 3.6768017
7.0797205 5.4269099 3.7789869
7.2989187 5.335464 3.7838583
9.1511059 5.322958 3.6949613
9.3948956 5.3920751 3.7358601
9.7982645 5.4018779 3.7583759
10.099304 5.3579855 3.7994912
10.680073 5.3238702 3.858247
11.017897 5.4415207 3.8182554
11.376945 5.3873563 3.8188739
14.633978 5.5093827 3.6196208
4.2230301 5.7844243 3.7895827
5.2661176 5.8483958 3.6220109
5.6786394 5.86165 3.6996706
6.644567 5.9159751 3.7756648
7.0128193 5.8166947 3.7128937
7.2805476 5.7312703 3.7263219
7.713973 5.8572893 3.6817279
9.1359158 5.9072356 3.8220553
9.3125935 5.8637362 3.7867658
9.7536964 5.6298089 3.8443058
10.143445 5.6542072 3.8712378
11.178776 5.704886 3.8258586
11.286999 5.63515 3.7838607
4.2133636 6.2173519 3.8243828
5.3389406 6.2399879 3.6109772
5.7942533 6.2252641 3.8140786
6.1762948 6.2079597 3.879575
6.5934081 6.2003918 3.7969308
6.9220085 6.225318 3.7717421
7.4915705 6.2092652 3.8034127
7.7925448 6.2245717 3.788682
8.1158705 6.2027469 3.8268597
8.6814299 6.3084579 3.7876117
9.0068607 6.2108979 3.7624886
9.261939 6.1509867 3.8131566
3.9563372 6.6153393 3.7993693
4.1186962 6.5610728 3.7912121
5.3288097 6.5250773 3.6198945
5.8930717 6.4868054 3.8527195
6.2559733 6.5915294 3.9381058
6.5952415 6.4854698 3.9036403
6.9096503 6.4397407 3.9624825
7.5153189 6.5581579 3.9289896
8.3136663 6.5324769 3.8575981
8.6065388 6.5604053 3.8383391
8.9199743 6.5175333 3.927722
3.9589651 6.9982185 3.7853019
4.1240463 7.0682044 3.7220106
3.9422152 7.4621673 3.7705262
4.074554 7.377274 3.7223151
3.9849827 7.9047146 3.7122405
4.1276565 7.8230276 3.7003715
-7.411406 8.356514 3.8173609
-7.3603792 8.5972366 3.8122177
-7.2933431 8.8685875 3.8073943
-8.2843199 15.555487 3.9256501
-8.109869 15.736732 3.9747517
-10.926182 -12.474841 4.1739745
-11.639973 -12.171358 4.0879607
-11.378731 -12.156246 4.1662645
-11.01686 -12.220705 4.2106056
-10.755731 -12.309111 4.396636
-11.732755 -11.817744 4.1704283
-11.410808 -11.877045 4.2331333
-11.067972 -11.897526 4.2957325
-11.89808 -11.428934 4.390295
-11.35106 -11.529306 4.2974477
-11.016407 -11.375247 4.2343807
24.760746 -11.254732 4.3822637
24.881584 -11.348769 4.2286406
-11.731862 -11.079405 4.3376555
-11.529151 -11.135361 4.3939118
-10.980848 -11.099978 4.3824711
24.666187 -10.998707 4.1873512
24.685364 -10.757138 4.272872
24.873554 -10.604055 4.1361814
-10.110741 -9.6461716 4.1130962
-9.8249187 -9.6087484 4.0962248
-10.508422 -9.2955379 4.0385823
-10.138535 -9.3086958 4.2484026
-9.8615751 -9.3827171 4.2330527
25.048605 -9.2207241 4.397758
-10.482229 -9.1737185 4.0126352
-10.264557 -9.0344505 4.253068
-9.816556 -8.8194113 4.1489325
25.410013 -8.9684982 4.1948252
-9.7166643 -8.5466652 4.1865449
-9.4930201 -8.6286926 4.1297355
-9.1337061 -8.6425991 4.0281925
25.447666 -8.6403608 4.2657027
25.642086 -8.5935411 4.2369051
-10.575954 -8.2176037 4.1184154
-10.105837 -8.0923004 4.1224422
-9.7260675 -8.2072315 4.1465015
-9.4892168 -8.2087088 4.2338648
25.361584 -8.2578106 4.3498564
-10.502324 -7.8121176 4.2299032
-9.6677113 -7.9903831 4.2861772
17.140652 -7.7673173 4.2439342
17.205645 -7.7329688 4.2447367
25.221716 -7.9801044 4.3824215
-10.64426 -7.5453696 4.3246222
14.809771 -7.2074275 4.3821664
17.120462 -7.4008365 4.1808228
17.231186 -7.3218594 4.2783818
14.634723 -7.0691924 4.371994
17.186531 -7.1646538 4.1631284
17.201614 -7.1174994 4.0615911
-10.821878 -6.4776325 4.0780716
16.717735 -6.4968824 4.179419
16.87269 -6.4774003 4.1613536
25.27474 -6.4421616 4.2002063
-10.884502 -6.287353 4.1668506
16.715717 -6.2078185 4.2291589
